ply
format ascii 1.0
element vertex 1182
property double x
property double y
property double z
property uchar red
property uchar green
property uchar blue
end_header
-0.471547 0.760656 2.656165 145 123 114
-0.472949 0.610931 2.657682 168 144 131
-0.521476 0.866679 3.105697 185 187 190
-0.524290 0.868675 3.088843 120 106 99
-0.526541 0.862246 3.063386 140 128 128
-0.528190 0.864873 3.109813 144 131 127
-0.528973 0.872382 3.086741 189 188 191
-0.531887 0.872523 3.088727 189 191 197
-0.532080 0.870186 3.098022 157 148 149
-0.533976 0.871699 3.081892 135 121 113
-0.537374 0.869257 3.114816 143 142 146
-0.528351 0.822748 2.905290 187 188 188
-0.530222 0.811523 2.943696 135 122 117
-0.530180 0.812716 2.943780 135 122 117
-0.539579 0.869577 3.119595 149 140 139
-0.532366 0.833042 2.954946 189 189 192
-0.532853 0.831414 2.954595 189 191 194
-0.542741 0.869636 3.066757 135 126 124
-0.545305 0.871532 3.124455 233 238 243
-0.546177 0.874619 3.113888 203 206 211
-0.549047 0.877229 3.100107 196 202 207
-0.552637 0.866347 3.128925 235 242 247
-0.549343 0.799802 3.153254 82 100 80
-0.546926 0.821564 2.902350 185 184 186
-0.554541 0.871586 3.115265 196 199 204
-0.554152 0.818830 2.936633 131 113 114
-0.554824 0.823788 2.925755 131 118 116
-0.560674 0.871913 3.093942 176 176 180
-0.561229 0.867097 3.123409 157 149 146
-0.561345 0.868096 3.123165 172 173 175
-0.556972 0.811086 2.909624 130 115 115
-0.558945 0.797379 2.987958 169 165 163
-0.565310 0.867595 3.077228 136 120 111
-0.561178 0.849048 2.651615 109 91 87
-0.570885 0.840946 3.196271 219 226 235
-0.571215 0.809819 2.976477 159 150 147
-0.569054 0.887078 2.649860 103 82 78
-0.578128 0.846524 3.185557 191 194 198
-0.579762 0.861505 3.070137 169 164 165
-0.577762 0.794434 2.991709 154 143 140
-0.582146 0.847868 3.211057 204 211 217
-0.578852 0.824620 2.919059 159 153 157
-0.582525 0.847502 3.179292 150 148 152
-0.583250 0.840695 3.199849 141 143 150
-0.585119 0.862445 3.100582 175 176 177
-0.586921 0.842804 3.182041 161 162 168
-0.587631 0.846464 3.200351 147 145 153
-0.587303 0.850490 3.063794 149 135 125
-0.588905 0.819855 2.916821 119 95 89
-0.592398 0.846632 3.169650 175 178 182
-0.589672 0.784634 2.758567 164 162 167
-0.594408 0.835439 3.057871 143 125 114
-0.594306 0.851005 3.070552 195 194 195
-0.594344 0.825140 2.931853 128 117 114
-0.596946 0.830559 2.908553 118 105 99
-0.599325 0.799404 2.999182 159 150 147
-0.598965 0.918488 2.649520 87 73 72
-0.605546 0.797161 2.782076 149 147 148
-0.606911 0.793102 2.756142 151 151 158
-0.610017 0.825675 3.056640 153 151 151
-0.610770 0.838332 3.080133 197 197 204
-0.613147 0.821414 3.130851 149 153 162
-0.613816 0.849888 3.196175 201 205 210
-0.615513 0.835217 2.917003 180 179 184
-0.617672 0.793273 2.974924 171 169 169
-0.616992 0.832584 2.932382 128 114 111
-0.618919 0.812902 3.141353 140 135 135
-0.621961 0.829707 3.150737 140 131 127
-0.621580 0.841071 3.181823 162 163 166
-0.623392 0.801581 2.791347 145 140 143
-0.625786 0.837835 2.918025 87 77 76
-0.626431 0.834867 2.917446 111 86 77
-0.640893 0.829434 3.101521 169 167 169
-0.643199 0.809884 2.867593 111 99 99
-0.646784 0.855981 2.929526 148 138 137
-0.649434 0.830292 3.090988 178 176 178
-0.653016 0.845920 2.672099 171 168 171
-0.654993 0.845994 2.660521 120 113 117
-0.654488 0.848918 2.902681 109 91 87
-0.657402 0.844874 2.883240 162 159 159
-0.658846 0.828535 3.082238 120 106 101
-0.668317 0.873676 2.906542 210 210 214
-0.669732 0.900761 2.649469 104 82 77
-0.670051 0.837769 3.133997 199 201 208
-0.677534 0.821284 3.062026 159 152 151
-0.680505 0.807148 3.041723 140 129 126
-0.676021 0.836401 3.125164 149 146 154
-0.676210 0.839761 3.139771 150 142 137
-0.679769 0.859513 2.941977 181 180 183
-0.686374 0.812628 3.044672 168 160 157
-0.683817 0.836145 3.107274 141 135 135
-0.684866 0.837232 3.138538 181 181 185
-0.685791 0.839941 3.129555 155 156 161
-0.688733 0.857638 2.893362 135 124 123
-0.689654 0.838095 3.124429 137 128 122
-0.753758 0.671201 2.682309 110 112 103
-0.714553 0.832260 3.110388 188 186 184
-0.723290 0.816743 3.081801 180 178 178
-0.728566 0.818201 3.127666 224 227 228
-0.817302 0.684095 2.647190 154 134 125
-0.826137 0.807152 2.648042 145 125 120
-0.455449 0.581521 2.659579 96 101 86
-0.458614 0.613222 2.657090 85 75 65
-0.429136 0.647307 2.656524 131 111 102
-0.453183 0.644067 2.656549 142 122 111
-0.510143 0.643793 2.656413 103 115 98
-0.633764 0.581249 2.657901 126 116 105
-0.530644 0.658663 2.654703 88 98 87
-0.439098 0.710892 2.654850 97 75 65
-0.415603 0.725119 2.652713 150 122 101
-0.570582 0.644485 2.653634 83 93 83
-0.533012 0.664222 2.655278 100 112 97
-0.570696 0.649416 2.677675 158 157 159
-0.570679 0.649665 2.678460 158 157 159
-0.400319 0.741291 2.653404 181 151 134
-0.438283 0.721697 2.654324 129 97 84
-0.558294 0.663668 2.958446 123 111 106
-0.506229 0.693580 2.655997 112 90 84
-0.560698 0.669238 2.911305 153 152 153
-0.453775 0.727486 2.654792 116 94 85
-0.561540 0.675155 2.894795 163 163 164
-0.566224 0.673453 2.957289 123 110 106
-0.563865 0.674281 2.957499 104 93 90
-0.539425 0.690418 2.656379 122 110 107
-0.563782 0.676509 2.909313 146 146 144
-0.562367 0.677393 2.910559 138 134 133
-0.414763 0.758743 2.653936 173 146 130
-0.540341 0.700273 2.936505 123 112 110
-0.570331 0.687649 2.901510 164 166 164
-0.548055 0.698586 2.973380 118 112 110
-0.559334 0.699284 2.943762 182 188 190
-0.402722 0.777474 2.653800 123 101 90
-0.534797 0.718982 2.654419 88 70 67
-0.512665 0.729185 2.652674 114 96 91
-0.579359 0.697138 2.914127 118 108 106
-0.449327 0.760177 2.650056 179 150 134
-0.561227 0.707051 2.926513 120 118 116
-0.560929 0.707252 2.926157 167 165 165
-0.553584 0.720169 2.657211 109 108 113
-0.591625 0.701813 2.985154 174 175 174
-0.592845 0.705560 2.805859 125 125 127
-0.563543 0.716282 2.923437 82 70 65
-0.418880 0.783586 2.653368 108 85 78
-0.473785 0.763325 2.651919 125 97 83
-0.561133 0.723907 2.944512 96 89 86
-0.558472 0.724466 2.982521 187 188 189
-0.579326 0.717473 3.006457 175 180 184
-0.511186 0.758219 2.652313 87 67 60
-0.567937 0.727829 2.988706 221 224 230
-0.545072 0.745150 2.663586 111 109 111
-0.553744 0.736589 2.939154 167 168 171
-0.544869 0.747979 2.657872 118 116 117
-0.585454 0.729570 2.766533 127 129 133
-0.546561 0.742405 2.915808 103 95 93
-0.577968 0.728732 2.994968 186 188 190
-0.500231 0.767612 2.651944 160 133 118
-0.685812 0.686269 3.127352 224 227 235
-0.467940 0.783563 2.653224 147 121 105
-0.583550 0.735639 2.753617 190 191 197
-0.587427 0.730260 3.025790 211 216 222
-0.543065 0.750977 2.916589 118 110 108
-0.579512 0.738097 2.873195 118 111 109
-0.581705 0.737308 2.873166 118 111 109
-0.560190 0.743283 2.989898 212 216 222
-0.585352 0.734498 3.020234 190 193 198
-0.541073 0.761832 2.657414 148 142 147
-0.552421 0.751462 2.943349 119 117 116
-0.470446 0.790110 2.652287 176 148 131
-0.542113 0.755983 2.923793 195 202 202
-0.437811 0.804408 2.652155 104 83 78
-0.666435 0.706228 3.121399 224 229 233
-0.578357 0.746331 2.862151 137 136 137
-0.564219 0.752980 2.899339 125 116 114
-0.535995 0.763775 2.940398 204 210 213
-0.534781 0.764124 2.939821 204 208 214
-0.526845 0.778555 2.651282 147 121 108
-0.525641 0.770714 2.978134 194 195 202
-0.576616 0.759482 2.750003 192 193 198
-0.402606 0.831868 2.652590 93 74 70
-0.585804 0.756214 3.039715 211 219 227
-0.524970 0.783126 2.888132 185 184 184
-0.568983 0.773462 2.721872 170 179 188
-0.506851 0.789269 2.958082 153 158 163
-0.541513 0.788521 2.694412 150 154 161
-0.580006 0.763732 3.071127 163 167 167
-0.508162 0.792734 2.950273 98 90 84
-0.572532 0.779425 2.724107 120 131 143
-0.571716 0.779435 2.724169 120 131 143
-0.576168 0.779325 2.752002 123 130 144
-0.525618 0.800389 2.663746 164 160 163
-0.544398 0.793008 2.697443 176 184 192
-0.517973 0.794995 2.916903 186 186 188
-0.514845 0.797225 2.913888 176 181 187
-0.546012 0.796211 2.691970 146 152 167
-0.545987 0.796236 2.691969 146 152 167
-0.516848 0.798758 2.892934 98 93 99
-0.516480 0.798926 2.893246 98 93 99
-0.533948 0.800923 2.679522 208 214 227
-0.524546 0.796785 2.938414 100 94 89
-0.514614 0.800613 2.946583 123 122 123
-0.515032 0.800658 2.946654 123 122 123
-0.548450 0.787870 3.001110 202 208 212
-0.403323 0.847640 2.652826 108 91 86
-0.511016 0.804584 2.954475 129 125 130
-0.554079 0.782905 3.188369 129 128 126
-0.386285 0.857342 2.651181 50 55 64
-0.588233 0.788362 2.774567 125 130 142
-0.544765 0.788186 3.203110 148 156 166
-0.522532 0.807803 2.915663 87 84 84
-0.565882 0.785809 3.160993 141 139 141
-0.569496 0.784827 3.162499 131 130 127
-0.569204 0.785670 3.155559 187 187 192
-0.569464 0.785630 3.155628 187 187 192
-0.553909 0.794835 3.043975 162 162 163
-0.554972 0.794237 3.044097 162 162 163
-0.549325 0.797606 3.002926 154 154 152
-0.557869 0.789914 3.217389 213 217 225
-0.553675 0.801701 2.980049 177 183 189
-0.608175 0.794215 2.750261 125 133 146
-0.558358 0.793712 3.160134 144 143 143
-0.556325 0.798544 3.055472 159 155 155
-0.561935 0.795011 3.153524 98 99 103
-0.543763 0.808168 3.016884 142 134 128
-0.530272 0.815569 2.943540 106 100 102
-0.530109 0.815645 2.943473 106 100 102
-0.563910 0.805852 2.973995 160 163 166
-0.569433 0.806908 2.985931 146 148 155
-0.533188 0.821503 2.907603 163 166 173
-0.534711 0.819210 3.031462 129 120 114
-0.550741 0.808844 3.206692 177 185 196
-0.551623 0.809442 3.199783 108 113 118
-0.546664 0.813905 3.179266 110 115 122
-0.552914 0.812018 3.196570 122 127 136
-0.558051 0.812209 3.224453 141 148 161
-0.557200 0.814446 3.223975 187 195 206
-0.558331 0.825248 3.021178 125 120 117
-0.568099 0.826970 2.934269 155 164 176
-0.559676 0.822289 3.152489 141 140 145
-0.549200 0.824422 3.176500 122 126 135
-0.439563 0.879938 2.651265 68 67 70
-0.512418 0.845415 3.057542 160 164 168
-0.483508 0.873015 2.650618 68 63 69
-0.617827 0.831033 2.915703 148 156 166
-0.603494 0.833642 2.934757 133 139 149
-0.506464 0.855261 3.083575 152 160 169
-0.614430 0.837872 2.939500 100 97 104
-0.509850 0.857784 3.076806 89 89 93
-0.519579 0.853271 3.124204 209 213 223
-0.508079 0.860116 3.082811 175 182 192
-0.575175 0.841313 3.196177 180 187 203
-0.518089 0.858697 3.115873 202 208 220
-0.653523 0.851008 2.903139 96 88 92
-0.653963 0.851054 2.903282 96 88 92
-0.528287 0.868912 3.077989 123 124 128
-0.484332 0.902867 2.653032 106 88 86
-0.657173 0.854623 2.895755 125 120 124
-0.657521 0.857979 2.906186 117 117 124
-0.658361 0.857884 2.905847 117 117 124
-0.708253 0.864389 2.647625 132 115 112
-0.658771 0.860289 2.940041 84 85 91
-0.652852 0.862812 2.932660 118 122 131
-0.662799 0.867137 2.906362 110 101 100
-0.661276 0.869987 2.951230 95 91 95
-0.696774 0.908281 2.649717 56 56 61
-0.716667 0.906926 2.649315 117 101 95
-0.390983 0.845830 2.652196 118 99 99
-0.423327 0.729265 2.652581 208 183 166
-0.461282 0.569793 2.662628 134 148 126
-0.438543 0.713975 2.654976 156 131 119
-0.471088 0.560851 2.660709 132 146 125
-0.449244 0.742824 2.652489 172 147 133
-0.422443 0.884866 2.651725 121 100 94
-0.479460 0.674404 2.657694 166 148 138
-0.449262 0.814126 2.650953 139 118 113
-0.459778 0.790933 2.650328 144 119 113
-0.513946 0.571468 2.660000 127 123 120
-0.444197 0.886489 2.650492 104 92 91
-0.471009 0.831303 2.652821 126 105 100
-0.520491 0.679189 2.656631 174 158 147
-0.479562 0.863257 2.650820 126 109 104
-0.481811 0.879124 2.648931 107 93 91
-0.524472 0.779082 2.653931 189 165 149
-0.503837 0.901378 2.650057 105 84 81
-0.528126 0.823723 2.905452 187 188 188
-0.540252 0.822581 2.907641 148 144 146
-0.515781 0.861033 3.077643 122 110 103
-0.531303 0.887075 2.650670 71 69 73
-0.515534 0.865230 3.090694 159 157 159
-0.550029 0.819129 2.906564 177 177 181
-0.549287 0.788681 3.177272 222 228 235
-0.554301 0.818358 2.936254 131 113 114
-0.526063 0.869368 3.104647 160 159 164
-0.547832 0.810646 3.200587 169 167 168
-0.570310 0.814622 2.913068 133 120 119
-0.557203 0.813855 3.164110 166 156 153
-0.557348 0.813645 3.163892 166 156 153
-0.585464 0.829546 2.661613 131 129 135
-0.536942 0.874204 3.093476 153 145 143
-0.539650 0.870327 3.119745 147 139 140
-0.543174 0.870737 3.073086 134 119 113
-0.542482 0.874638 3.081933 172 171 176
-0.541886 0.873542 3.111971 173 173 178
-0.541935 0.873449 3.111995 173 173 178
-0.543715 0.872909 3.119538 149 143 145
-0.583738 0.808442 2.990895 152 143 141
-0.559586 0.833903 3.178719 154 150 147
-0.559762 0.833709 3.178813 154 150 147
-0.563971 0.829522 3.160406 170 168 166
-0.586263 0.812240 2.982521 184 187 188
-0.588166 0.821953 2.916951 119 95 89
-0.549722 0.877163 3.100303 188 193 202
-0.578970 0.831784 3.030573 151 142 137
-0.561813 0.864835 3.057703 143 129 124
-0.580461 0.830039 3.028413 151 142 137
-0.561308 0.864467 3.130829 220 222 223
-0.596699 0.828294 2.916838 180 181 186
-0.576518 0.822842 3.229586 230 234 237
-0.585315 0.835941 3.149440 167 164 161
-0.609055 0.835031 2.916433 186 188 193
-0.576015 0.872594 3.103424 212 214 219
-0.583741 0.844951 3.180533 161 162 166
-0.590927 0.844107 3.186605 151 150 156
-0.643263 0.809187 2.828407 129 123 127
-0.627879 0.835939 2.923704 120 104 98
-0.615367 0.908759 2.647571 115 90 80
-0.604937 0.847259 3.200846 219 224 233
-0.661777 0.782011 2.975526 154 147 148
-0.662377 0.847971 2.660444 114 109 115
-0.613836 0.844279 3.207544 167 161 155
-0.630958 0.827716 3.168477 198 200 207
-0.640447 0.826396 3.171875 182 182 181
-0.647795 0.828674 3.112334 158 151 147
-0.648443 0.831953 3.105290 180 184 188
-0.653431 0.855697 2.927648 121 104 99
-0.657013 0.855059 2.896224 147 141 139
-0.636419 0.843167 3.201439 204 211 213
-0.664017 0.832808 3.097292 139 135 137
-0.664924 0.861768 2.940375 124 112 112
-0.665997 0.835681 3.126310 174 175 177
-0.667379 0.835521 3.121170 146 143 146
-0.692787 0.841017 3.132367 207 214 225
-0.750791 0.872771 2.645918 138 117 109
-0.801797 0.895926 2.646515 119 104 99
-0.467983 0.589276 2.666784 116 110 101
-0.467285 0.590324 2.666748 143 139 128
-0.421377 0.650849 2.658405 156 136 126
-0.433239 0.701427 2.654075 169 146 133
-0.409156 0.757940 2.650926 149 119 106
-0.394112 0.780453 2.651113 113 91 83
-0.422070 0.752154 2.652830 212 188 174
-0.520280 0.670861 2.656240 140 135 127
-0.401274 0.800887 2.653063 120 100 93
-0.466062 0.736785 2.654654 162 140 129
-0.465472 0.737517 2.654882 162 140 129
-0.538564 0.671561 2.655806 150 153 148
-0.570390 0.644434 2.657257 91 93 89
-0.405163 0.821922 2.651956 129 108 103
-0.562973 0.666941 2.657599 128 126 128
-0.556546 0.664588 2.918873 124 117 115
-0.581108 0.648062 2.684152 220 227 233
-0.579755 0.649762 2.684841 220 227 233
-0.562721 0.677700 2.655308 121 107 106
-0.490074 0.763366 2.651798 147 120 109
-0.471554 0.789153 2.652555 174 143 128
-0.553242 0.713771 2.656000 137 127 129
-0.570209 0.690401 2.894909 154 145 142
-0.596017 0.680268 2.720138 212 214 218
-0.591298 0.685776 2.891998 185 181 178
-0.525945 0.745904 2.961324 145 140 139
-0.490418 0.794387 2.651440 189 163 146
-0.589713 0.688241 3.010210 207 215 221
-0.546486 0.732917 2.922727 211 213 217
-0.420187 0.860671 2.652829 70 68 77
-0.563896 0.721485 2.944418 114 107 103
-0.564465 0.721338 2.944391 114 107 103
-0.419274 0.867749 2.652811 123 108 103
-0.509352 0.788441 2.651643 159 133 121
-0.512054 0.779540 2.916548 119 109 106
-0.526803 0.771122 2.939258 216 222 227
-0.508629 0.794532 2.906663 169 174 180
-0.414569 0.889221 2.651232 120 97 91
-0.460070 0.849887 2.651385 124 103 98
-0.510637 0.794623 2.942495 138 133 129
-0.540239 0.789183 2.688368 187 194 202
-0.392447 0.915941 2.651795 103 86 85
-0.576659 0.750262 2.871439 178 176 174
-0.515971 0.799132 2.893232 106 97 102
-0.584441 0.736080 3.013394 208 211 216
-0.516103 0.801115 2.909092 149 155 166
-0.515018 0.801490 2.908982 149 155 166
-0.559941 0.778544 2.712582 236 240 248
-0.523306 0.798130 2.937906 115 103 100
-0.573447 0.761500 2.870381 146 142 139
-0.529550 0.810036 2.665365 154 154 166
-0.566218 0.782384 2.715120 175 185 195
-0.568607 0.775195 2.873501 171 166 163
-0.466062 0.871372 2.651316 71 66 73
-0.589005 0.785270 2.758849 164 162 167
-0.553726 0.791726 3.188965 151 150 150
-0.545195 0.817745 2.916451 174 173 180
-0.579947 0.772147 3.239903 230 236 242
-0.535719 0.819318 3.029942 137 127 124
-0.525204 0.833485 2.950179 111 108 114
-0.543458 0.820925 2.923366 104 91 91
-0.527529 0.829604 3.034909 158 149 147
-0.556383 0.809382 3.160360 96 98 103
-0.508718 0.851056 3.111008 222 230 236
-0.513737 0.881322 2.652236 88 82 85
-0.511384 0.855790 3.070756 142 139 142
-0.562477 0.813498 3.163420 153 147 146
-0.525338 0.875312 2.654328 103 88 85
-0.511633 0.856812 3.100757 127 125 127
-0.550923 0.820441 3.217137 208 216 223
-0.509869 0.858973 3.106077 221 228 237
-0.556185 0.822497 3.169046 169 165 161
-0.558283 0.822435 3.219463 199 205 213
-0.518141 0.858608 3.116286 201 207 219
-0.557194 0.828982 3.201562 140 140 147
-0.572785 0.855358 2.652706 88 74 73
-0.529813 0.887986 2.651274 72 71 79
-0.521218 0.866012 3.105102 190 201 215
-0.593133 0.829053 2.928011 113 106 110
-0.591602 0.831650 2.917533 143 147 156
-0.601446 0.830274 2.922351 116 112 119
-0.528312 0.868335 3.109592 125 125 132
-0.533869 0.868169 3.067903 129 127 133
-0.645901 0.819743 2.692460 140 147 160
-0.555066 0.888551 2.651097 102 87 86
-0.538002 0.871246 3.109293 155 160 170
-0.564339 0.860847 3.048091 114 111 116
-0.572664 0.844044 3.214789 177 181 183
-0.572861 0.847844 3.177621 154 154 160
-0.577069 0.844056 3.196815 194 200 211
-0.546985 0.873982 3.071858 132 134 142
-0.573237 0.847406 3.210756 143 148 157
-0.625514 0.834651 2.923254 99 93 94
-0.625355 0.834713 2.923400 101 94 99
-0.596605 0.875658 2.647809 108 90 86
-0.544326 0.876080 3.099064 182 190 201
-0.682587 0.819655 2.700514 209 213 221
-0.667393 0.828967 2.722762 118 106 105
-0.551511 0.874900 3.101807 196 202 210
-0.626765 0.841104 2.907691 96 83 78
-0.588070 0.845382 3.216244 176 184 191
-0.586536 0.848031 3.199202 134 135 147
-0.587458 0.847309 3.199640 141 141 148
-0.651237 0.840679 2.902297 103 91 90
-0.652334 0.826462 3.075412 150 150 152
-0.600284 0.848505 3.208952 161 167 177
-0.654478 0.823148 3.161043 51 68 57
-0.654844 0.833158 3.091722 155 160 167
-0.669115 0.860870 2.648773 95 84 82
-0.653438 0.840267 3.102798 138 143 149
-0.654512 0.855297 2.939597 101 92 92
-0.650122 0.859026 2.928322 106 97 98
-0.657856 0.859759 2.932117 146 137 136
-0.694737 0.820973 3.154859 240 241 247
-0.677842 0.837385 3.089815 152 158 167
-0.698746 0.828003 3.077326 134 134 139
-0.679603 0.837253 3.115629 150 157 168
-0.681777 0.837640 3.146302 168 178 177
-0.659871 0.870102 2.951810 105 98 102
-0.694867 0.839058 3.112384 128 128 131
-0.678381 0.869644 2.920138 139 140 150
-0.702712 0.843541 3.115144 167 171 178
-0.805346 0.842575 2.651980 98 90 88
-0.818880 0.851024 2.647497 99 89 91
-0.545116 0.547397 2.659128 134 131 121
-0.449167 0.566232 2.659762 82 98 80
-0.538538 0.575507 2.657646 55 58 53
-0.477752 0.585799 2.657675 59 55 51
-0.634420 0.581149 2.657376 126 116 105
-0.593369 0.599437 2.657724 130 130 118
-0.525435 0.610334 2.653840 121 103 90
-0.626348 0.600472 2.656087 92 102 85
-0.693146 0.595653 2.655274 123 134 120
-0.488704 0.621372 2.657189 105 92 81
-0.611632 0.614288 2.655381 121 130 115
-0.693952 0.610010 2.658005 76 89 69
-0.482367 0.634805 2.658881 77 82 67
-0.765929 0.614995 2.650081 64 65 56
-0.832237 0.611308 2.652904 110 100 94
-0.571431 0.650930 2.918556 178 183 192
-0.646384 0.649897 3.007015 178 185 189
-0.570369 0.656565 2.897111 108 103 100
-0.597526 0.656416 2.701169 185 196 198
-0.596382 0.656528 2.692392 143 148 153
-0.555421 0.675116 2.958416 104 93 90
-0.549391 0.671316 2.654561 87 78 76
-0.565892 0.675531 2.901637 110 106 106
-0.534691 0.676483 2.656736 122 121 118
-0.697072 0.683798 3.129843 202 207 210
-0.692925 0.683580 3.128974 202 207 210
-0.637046 0.686703 3.029687 200 205 209
-0.701599 0.690675 3.132196 191 194 196
-0.507859 0.686370 2.654420 78 59 53
-0.561983 0.692492 2.948162 110 108 108
-0.600368 0.700855 3.022566 212 217 222
-0.669672 0.706748 3.113292 146 152 153
-0.592563 0.707571 3.024157 172 178 179
-0.591335 0.707380 3.024294 172 178 179
-0.689121 0.712674 3.133627 205 210 216
-0.592207 0.707549 2.755229 163 168 173
-0.601961 0.712130 3.031463 184 189 193
-0.582078 0.714297 3.019487 161 163 163
-0.493833 0.711332 2.652610 86 68 63
-0.564712 0.716343 2.923149 82 70 65
-0.553694 0.716628 2.662707 133 132 135
-0.574994 0.728943 2.994565 157 161 162
-0.578271 0.730981 3.014692 174 179 182
-0.451450 0.723739 2.654977 95 76 66
-0.585402 0.729503 2.766700 127 129 133
-0.577319 0.734084 3.002324 164 166 165
-0.562975 0.734987 2.988526 204 207 213
-0.584094 0.736025 2.753687 175 179 184
-0.554117 0.736532 2.939206 178 182 184
-0.590957 0.741433 3.032569 175 180 184
-0.558453 0.743440 2.989718 199 204 207
-0.593278 0.748820 3.223491 110 114 123
-0.552922 0.745892 2.933610 127 123 126
-0.552854 0.745802 2.933568 127 123 126
-0.595219 0.751485 3.049494 189 194 200
-0.596574 0.752011 3.207578 126 133 146
-0.554465 0.748847 2.983776 165 166 167
-0.587606 0.753096 3.029527 157 164 170
-0.587062 0.753502 3.154407 133 135 141
-0.587640 0.754475 3.007359 174 180 186
-0.574263 0.757851 3.221146 195 198 202
-0.577044 0.759544 2.750647 171 175 180
-0.540813 0.756679 2.932499 103 98 94
-0.577314 0.760172 2.749588 177 182 185
-0.587363 0.761672 3.168646 183 190 198
-0.587873 0.764458 3.181078 130 132 139
-0.586460 0.764207 3.040932 142 147 152
-0.586577 0.763999 3.041009 167 172 176
-0.579459 0.764411 3.069601 141 141 146
-0.580788 0.764996 3.010120 180 184 190
-0.566230 0.764536 2.710949 183 189 197
-0.579615 0.766302 3.052767 144 147 150
-0.582707 0.766545 3.052888 144 147 150
-0.571729 0.766018 2.993583 197 202 208
-0.567999 0.766101 3.217449 113 114 119
-0.567995 0.766082 3.217562 113 114 119
-0.578357 0.767809 3.169535 171 179 190
-0.569308 0.768983 3.021398 171 180 185
-0.558134 0.768845 3.211430 174 181 189
-0.555375 0.771672 3.201526 115 119 129
-0.570232 0.774849 2.786690 138 138 142
-0.502144 0.769343 2.656208 140 112 99
-0.552437 0.772971 3.204711 145 150 162
-0.553407 0.772911 3.205004 149 155 161
-0.556560 0.775678 3.195847 143 143 143
-0.539279 0.776865 2.891408 172 179 183
-0.570013 0.780152 3.228912 143 151 160
-0.550818 0.778530 3.205793 118 122 128
-0.532702 0.778376 2.926719 109 103 102
-0.438293 0.769516 2.652339 148 121 102
-0.528159 0.779939 2.908370 113 114 117
-0.575048 0.784733 3.157106 166 171 178
-0.588310 0.786373 3.097752 147 152 158
-0.555724 0.784130 3.214384 184 194 203
-0.525993 0.784296 2.893331 128 128 127
-0.453757 0.777517 2.650650 87 64 55
-0.516230 0.783813 2.888628 166 168 170
-0.520007 0.786314 2.901413 140 141 143
-0.550982 0.789294 3.179292 157 164 173
-0.557004 0.791059 3.010906 142 142 142
-0.514814 0.789227 2.897177 167 173 178
-0.536449 0.790047 3.192778 108 116 124
-0.550344 0.792476 3.184967 122 126 134
-0.511161 0.789364 2.917088 182 186 190
-0.547969 0.792310 3.175783 159 166 174
-0.561532 0.793492 3.232831 184 192 203
-0.546932 0.796018 2.689548 129 140 153
-0.548143 0.792663 3.207138 165 174 183
-0.557056 0.794591 3.224710 151 160 170
-0.555867 0.795186 3.222514 135 144 153
-0.572988 0.798691 3.140778 122 126 129
-0.420693 0.783797 2.652023 84 64 57
-0.509793 0.795818 2.906393 134 136 139
-0.560290 0.802043 3.058533 144 143 141
-0.557951 0.802480 3.225994 150 156 168
-0.564717 0.803683 3.229875 146 154 165
-0.517890 0.801052 2.934570 131 134 140
-0.517422 0.801870 2.946337 105 106 109
-0.556380 0.807189 3.218798 139 144 152
-0.532501 0.811822 3.036355 160 158 157
-0.533230 0.811799 3.036303 182 184 186
-0.529650 0.814526 2.938830 90 86 89
-0.580246 0.821955 3.058950 125 115 107
-0.672268 0.844431 2.680811 161 169 175
-0.523449 0.818158 2.947251 87 80 82
-0.548878 0.820648 3.189493 111 119 128
-0.414767 0.809185 2.650261 90 71 66
-0.566105 0.826787 3.170443 119 120 127
-0.506945 0.833772 2.653428 87 73 72
-0.567449 0.842546 3.099057 146 148 154
-0.571165 0.842006 3.195839 168 174 192
-0.573754 0.844999 3.090829 108 100 98
-0.671232 0.867420 2.923346 92 93 97
-0.476141 0.837842 2.652974 92 76 74
-0.476130 0.837894 2.653084 92 76 74
-0.512780 0.852289 2.650279 79 65 64
-0.488193 0.851477 2.649402 77 61 61
-0.511825 0.847363 3.077487 130 129 131
-0.510284 0.851108 3.078714 125 126 130
-0.461747 0.866914 2.652878 63 56 58
-0.395527 0.853379 2.652262 37 42 51
-0.474363 0.872894 2.650226 65 60 62
-0.385434 0.857136 2.653011 41 44 54
-0.462611 0.906003 2.646770 85 70 67
-0.379854 0.906313 2.646481 75 62 60
-0.821322 0.573719 2.656078 113 99 91
-0.762136 0.564876 2.656506 76 71 60
-0.721806 0.576065 2.655156 120 105 92
-0.693753 0.564455 2.655786 74 56 50
-0.813941 0.627995 2.654407 129 114 106
-0.734541 0.592488 2.655740 61 67 51
-0.753506 0.604853 2.655570 75 80 66
-0.644701 0.557179 2.657051 92 91 79
-0.666292 0.576297 2.656892 77 74 65
-0.718305 0.608380 2.655500 117 127 103
-0.676017 0.595973 2.657879 134 143 126
-0.680618 0.599224 2.655478 139 146 129
-0.678651 0.597959 2.656372 139 144 128
-0.592737 0.557581 2.658990 67 67 62
-0.699782 0.614927 2.653703 97 106 85
-0.631578 0.581116 2.657958 135 122 110
-0.624851 0.589900 2.658656 119 119 103
-0.600281 0.583267 2.658378 89 81 72
-0.710368 0.652548 2.654703 121 115 104
-0.701458 0.653679 2.654753 115 110 101
-0.690921 0.647509 2.654817 125 125 113
-0.601258 0.596919 2.658742 136 125 115
-0.648037 0.638963 2.957081 141 144 149
-0.514619 0.549788 2.658861 86 89 74
-0.522192 0.554864 2.658805 91 94 85
-0.587402 0.592916 2.655929 104 96 86
-0.691085 0.660733 2.661722 53 58 55
-0.638798 0.654429 3.007389 201 206 210
-0.619950 0.645115 2.935640 113 99 93
-0.600067 0.627115 2.656524 124 142 123
-0.626556 0.650140 2.684830 226 231 237
-0.512773 0.578528 2.655740 60 64 57
-0.588788 0.642261 2.964673 160 166 172
-0.592006 0.637201 2.677508 193 196 199
-0.598600 0.642190 2.665375 175 180 182
-0.625288 0.674697 3.012337 235 240 245
-0.578276 0.648563 2.909347 137 137 140
-0.588759 0.656631 2.948126 159 159 160
-0.484657 0.586948 2.658201 85 69 57
-0.580008 0.653498 2.699593 172 177 183
-0.581210 0.654253 2.698687 172 178 184
-0.582236 0.655044 2.698695 150 152 157
-0.580159 0.653729 2.699681 172 177 183
-0.452795 0.567385 2.657953 84 99 82
-0.449746 0.565967 2.659888 102 120 98
-0.612967 0.687576 2.756019 203 207 215
-0.597784 0.677714 2.725662 213 218 221
-0.597921 0.678013 2.725362 219 224 229
-0.553661 0.655074 2.965999 189 193 197
-0.669209 0.739428 3.088004 196 201 208
-0.561575 0.660454 2.919699 192 199 203
-0.561077 0.660550 2.953932 150 151 152
-0.591790 0.677789 2.721809 173 181 187
-0.591770 0.677787 2.721827 173 181 187
-0.664936 0.743226 3.085333 192 199 204
-0.665502 0.743685 3.085430 207 212 218
-0.566127 0.662304 2.655726 72 80 71
-0.590687 0.686382 2.745413 161 166 169
-0.564630 0.665077 2.665001 192 200 205
-0.464525 0.594753 2.658103 85 66 55
-0.596503 0.691413 2.739748 145 150 156
-0.637236 0.730480 3.052834 210 218 225
-0.620239 0.725098 3.042655 226 232 236
-0.461020 0.601152 2.657969 92 72 60
-0.590184 0.708152 3.024115 188 191 192
-0.595986 0.706081 2.790686 141 142 144
-0.595253 0.709312 2.754174 170 175 179
-0.593224 0.707949 2.753853 176 182 188
-0.645233 0.755474 3.087941 209 215 221
-0.552564 0.676714 2.658319 70 58 55
-0.587306 0.717428 3.020596 179 182 185
-0.525664 0.663469 2.656116 79 90 77
-0.624678 0.749254 3.075716 189 193 197
-0.625548 0.750123 3.075888 189 193 197
-0.452963 0.610585 2.659008 77 74 58
-0.655062 0.777908 3.121173 221 229 236
-0.486254 0.639570 2.656656 82 85 69
-0.504039 0.655685 2.657337 90 97 81
-0.619545 0.757156 3.163484 166 169 170
-0.562524 0.708430 2.925785 144 148 146
-0.562537 0.708439 2.925787 144 148 146
-0.604901 0.746842 3.172709 175 180 182
-0.573269 0.721815 2.997523 155 159 160
-0.590336 0.732678 2.764603 160 164 166
-0.589508 0.731818 2.765127 154 155 157
-0.557064 0.712561 2.941193 138 134 128
-0.601701 0.751969 3.162503 185 188 192
-0.611504 0.759649 3.148893 186 192 195
-0.590087 0.741203 3.031761 193 198 202
-0.584389 0.736373 2.753532 167 173 177
-0.608505 0.767972 3.136301 161 166 166
-0.557383 0.724419 2.917523 115 111 109
-0.592873 0.758492 3.184561 159 161 164
-0.586520 0.752323 3.006649 181 186 189
-0.591482 0.760198 3.170050 223 228 234
-0.607136 0.773278 3.130745 171 172 176
-0.440568 0.630551 2.658481 94 75 64
-0.585196 0.756892 3.152140 143 145 146
-0.508063 0.685947 2.654399 78 59 53
-0.581850 0.759787 3.189991 191 196 200
-0.575521 0.760607 3.215889 132 131 132
-0.580280 0.763802 3.069857 133 136 143
-0.579645 0.765823 3.176857 142 142 144
-0.579849 0.764318 3.068961 158 160 162
-0.581012 0.765731 3.069189 158 160 162
-0.566033 0.753623 2.899546 112 106 102
-0.566151 0.753615 2.899552 112 103 100
-0.571853 0.762956 3.209943 165 169 171
-0.485049 0.684629 2.656412 92 73 67
-0.573496 0.768963 3.084042 168 173 179
-0.584498 0.782438 3.139982 116 119 124
-0.568295 0.773055 3.086686 185 190 196
-0.544578 0.749634 2.657173 131 128 126
-0.563651 0.773648 3.191465 154 154 157
-0.563622 0.773619 3.191559 159 161 162
-0.558173 0.769154 3.212002 222 231 235
-0.571618 0.782871 3.155527 174 179 178
-0.571956 0.783256 3.155665 174 179 178
-0.567241 0.777621 3.042500 212 217 223
-0.545274 0.758734 2.984334 196 203 209
-0.568126 0.781908 3.168139 126 133 141
-0.562424 0.778456 3.186597 141 143 143
-0.555648 0.774818 3.195532 139 139 140
-0.588568 0.805548 3.131284 115 108 104
-0.568388 0.789860 3.231511 205 210 214
-0.515194 0.743697 2.652477 64 46 40
-0.513953 0.742434 2.653375 87 71 64
-0.560817 0.790743 3.223850 207 212 219
-0.541201 0.772343 2.990224 206 211 217
-0.559938 0.790589 3.163367 111 110 107
-0.551089 0.785256 3.184126 152 153 153
-0.551061 0.786022 3.181251 194 201 206
-0.557148 0.791245 3.010937 148 152 154
-0.531001 0.767050 2.932127 144 144 140
-0.561010 0.796215 3.156405 105 108 112
-0.549068 0.787889 3.192108 137 137 141
-0.549162 0.788029 3.192127 128 129 128
-0.559929 0.797358 3.088026 142 147 147
-0.557195 0.795590 3.221955 159 163 165
-0.557712 0.796189 3.221850 173 178 184
-0.552011 0.791748 3.085814 143 147 147
-0.553691 0.794661 2.997967 167 173 177
-0.545970 0.789822 3.199596 114 117 119
-0.555177 0.799653 3.079399 162 164 162
-0.565464 0.810416 3.145160 105 98 91
-0.530170 0.776803 2.927315 109 103 102
-0.559903 0.807060 3.026404 142 136 134
-0.530444 0.779796 2.939875 132 129 126
-0.530967 0.780981 2.902562 188 193 199
-0.561066 0.811154 3.034063 175 176 175
-0.550738 0.805124 3.212044 171 176 180
-0.550520 0.805040 3.212092 171 176 180
-0.545954 0.800645 3.201069 150 152 154
-0.569623 0.825163 3.047546 156 154 152
-0.550193 0.809537 3.199475 121 123 125
-0.569660 0.828259 3.043785 135 131 127
-0.528983 0.791459 2.927893 150 153 154
-0.556192 0.818153 3.159835 131 132 132
-0.520299 0.786552 2.901127 151 155 157
-0.505719 0.775676 2.651713 157 133 112
-0.506224 0.776151 2.651447 174 147 127
-0.550243 0.819664 3.211987 129 134 138
-0.572814 0.841934 3.070281 181 177 176
-0.517375 0.789966 2.904440 160 164 166
-0.515650 0.788619 2.911394 154 155 157
-0.529546 0.803476 2.649438 64 53 50
-0.569516 0.842867 3.099045 145 151 155
-0.566628 0.840303 3.098061 168 173 175
-0.539167 0.812944 3.028241 125 116 106
-0.565955 0.839152 3.055070 154 155 160
-0.543549 0.821518 3.029465 125 114 103
-0.534091 0.813373 3.037532 215 222 229
-0.568423 0.847738 3.087343 175 176 178
-0.525330 0.808837 2.658265 89 78 75
-0.506254 0.788846 2.957457 164 171 176
-0.567318 0.851184 3.074030 144 138 132
-0.560976 0.849007 3.083908 172 178 182
-0.516200 0.806069 2.949563 97 93 90
-0.472086 0.774927 2.655409 157 134 111
-0.543112 0.848683 3.122051 121 116 113
-0.544132 0.856697 3.108344 114 108 104
-0.539734 0.852391 3.113027 147 144 140
-0.541257 0.855172 3.087222 164 163 166
-0.526202 0.849917 2.653514 90 76 75
-0.526157 0.850174 3.045591 120 118 116
-0.521912 0.846201 3.124610 196 202 207
-0.513890 0.842986 3.117471 194 200 205
-0.505277 0.835965 3.104090 112 104 97
-0.516135 0.847754 3.082572 182 188 190
-0.512182 0.850239 3.097306 145 150 151
-0.513326 0.851380 3.097594 154 151 151
-0.523010 0.880186 2.652190 64 60 61
-0.511096 0.857531 3.101735 111 108 106
-0.408972 0.767710 2.652458 116 93 82
-0.451703 0.841186 2.652905 78 62 62
-0.546117 0.605455 2.657164 127 110 98
-0.400502 0.741896 2.654326 169 138 118
-0.550528 0.787253 3.214598 239 247 252
-0.568090 0.781882 3.108866 227 231 240
-0.578387 0.786536 3.240729 220 223 228
-0.559214 0.802272 3.226732 196 203 210
-0.491703 0.799417 2.652308 121 93 83
-0.551593 0.810816 3.198002 159 160 163
-0.561635 0.790219 2.840900 124 133 146
-0.563915 0.819116 3.225686 225 234 241
-0.563844 0.819435 3.226275 225 234 241
-0.577571 0.816541 3.232499 233 240 248
-0.580919 0.819025 3.144934 164 168 170
-0.521371 0.852149 3.123803 222 229 235
-0.509534 0.858843 3.079126 188 196 203
-0.569497 0.826138 2.934081 179 188 200
-0.561958 0.843187 3.120425 241 246 252
-0.579142 0.839852 3.199984 146 154 163
-0.599256 0.831283 2.908969 149 155 165
-0.638036 0.826670 3.095972 138 142 149
-0.670338 0.835248 3.103687 163 167 176
-0.645900 0.548573 2.656860 120 111 101
-0.808574 0.593304 2.674818 85 77 74
-0.680063 0.574873 2.656721 61 48 43
-0.722320 0.592962 2.657095 105 108 93
-0.630713 0.580936 2.658257 135 122 110
-0.632710 0.595426 2.656551 118 119 105
-0.665953 0.611769 2.657653 115 121 107
-0.721604 0.659050 3.018117 181 185 191
-0.459804 0.564117 2.658260 73 86 69
-0.645509 0.640703 2.939986 140 140 138
-0.680536 0.657762 3.024913 60 71 80
-0.595418 0.618481 2.655388 80 88 75
-0.641385 0.654178 3.013734 155 161 167
-0.480320 0.585851 2.656650 62 54 47
-0.713719 0.677542 2.688101 209 215 220
-0.638367 0.660904 3.020951 187 194 200
-0.580548 0.653915 2.898695 110 105 105
-0.446038 0.595800 2.658482 113 97 82
-0.563229 0.657608 2.904592 121 122 125
-0.598080 0.684492 2.733347 207 212 218
-0.565298 0.677054 2.920875 123 116 113
-0.528055 0.664124 2.654882 80 94 77
-0.473886 0.641805 2.658373 91 76 65
-0.474262 0.641927 2.658157 80 68 58
-0.594543 0.705133 2.869622 122 120 115
-0.614670 0.721039 3.042366 202 212 217
-0.590744 0.714675 2.870913 114 107 106
-0.653426 0.753003 3.095430 179 186 192
-0.561620 0.707463 2.926494 137 136 138
-0.428222 0.647694 2.656832 85 66 59
-0.423978 0.647680 2.656947 88 70 61
-0.604465 0.752989 3.168235 153 156 159
-0.590601 0.750243 3.229091 175 176 183
-0.485691 0.693952 2.654386 88 69 63
-0.589367 0.756772 3.221827 150 149 151
-0.587460 0.755771 3.221178 125 126 138
-0.587585 0.757180 3.061962 196 203 208
-0.577218 0.758519 2.756719 160 162 167
-0.577102 0.759665 2.750206 187 190 197
-0.562001 0.752693 2.980222 161 163 165
-0.578830 0.765304 3.176414 130 130 129
-0.578646 0.767920 3.169440 171 179 190
-0.579402 0.767345 2.691972 196 202 206
-0.550080 0.759077 2.973657 189 191 190
-0.545530 0.758855 2.984249 196 203 209
-0.556672 0.777879 3.102561 196 204 209
-0.555389 0.780229 3.082894 142 147 153
-0.568619 0.789598 3.231346 183 187 190
-0.557423 0.787532 3.056883 130 131 133
-0.560958 0.791393 3.164504 126 123 120
-0.550249 0.785141 3.180411 155 162 170
-0.437289 0.721693 2.655141 97 71 60
-0.550455 0.788962 3.192809 97 101 106
-0.523982 0.777383 2.908965 143 145 149
-0.526294 0.781529 2.899041 154 160 168
-0.464581 0.747506 2.651429 73 55 48
-0.426318 0.726110 2.654228 146 117 98
-0.573491 0.821031 3.058434 111 101 94
-0.469491 0.760967 2.652880 81 63 55
-0.515266 0.788283 2.911698 144 144 142
-0.516014 0.788910 2.911392 150 150 152
-0.516209 0.789429 2.895504 167 173 178
-0.541451 0.805113 3.022763 197 205 208
-0.513396 0.790457 2.917058 177 182 184
-0.511602 0.790798 2.887949 91 88 86
-0.413042 0.730698 2.653188 166 135 115
-0.505745 0.792375 2.960813 158 160 164
-0.526371 0.818371 2.655193 58 48 47
-0.574101 0.845293 3.090868 108 100 98
-0.506597 0.811722 2.651305 68 54 52
-0.405872 0.744910 2.654840 149 119 101
-0.487416 0.809512 2.651369 87 70 67
-0.544588 0.846936 3.058354 161 164 166
-0.526634 0.849130 3.047303 110 108 108
-0.513359 0.846193 3.105716 106 102 100
-0.450746 0.812073 2.652360 85 70 67
-0.510337 0.852737 3.100134 110 106 104
-0.510547 0.857166 3.107719 178 185 195
-0.510037 0.861760 3.078196 94 93 96
-0.523741 0.878199 3.087296 167 174 179
-0.408951 0.855657 2.653230 64 63 66
-0.835177 0.577267 2.653856 109 93 89
-0.798860 0.570422 2.655732 96 85 76
-0.808658 0.627601 2.651454 137 121 113
-0.746094 0.563104 2.655781 97 92 87
-0.723237 0.558973 2.657310 86 82 72
-0.725541 0.651262 3.007788 173 173 171
-0.690165 0.595318 2.656076 137 137 115
-0.762655 0.694803 2.661499 111 97 92
-0.705487 0.660343 3.003285 184 189 195
-0.676291 0.621568 2.656216 118 130 113
-0.703806 0.687543 2.701677 193 198 200
-0.649591 0.629921 2.938918 232 236 241
-0.650152 0.633697 2.957995 185 190 193
-0.648913 0.633863 2.967447 199 204 209
-0.646838 0.639447 2.956702 166 167 167
-0.658033 0.659500 2.664820 141 144 147
-0.652639 0.650849 2.656435 76 79 71
-0.602998 0.599826 2.656100 132 124 112
-0.645224 0.715205 3.034147 223 228 232
-0.608965 0.659819 2.976141 194 194 194
-0.602697 0.660014 2.931782 134 125 123
-0.587364 0.621238 2.655774 99 100 87
-0.572769 0.596498 2.656610 96 108 90
-0.586889 0.660943 2.956749 126 119 112
-0.584036 0.648528 2.692495 219 229 235
-0.620672 0.757707 3.159715 172 173 175
-0.596044 0.681648 2.732834 173 178 182
-0.597316 0.683356 2.732368 173 178 182
-0.582826 0.703010 3.011815 194 199 202
-0.600546 0.751599 3.157320 159 160 161
-0.609891 0.767425 3.119598 192 197 203
-0.560669 0.660431 2.953722 165 167 168
-0.597465 0.753185 3.207417 156 158 158
-0.559171 0.660746 2.921334 209 213 220
-0.568949 0.689168 2.946330 116 105 101
-0.577655 0.719407 2.994259 196 199 201
-0.560052 0.681972 2.932180 112 100 98
-0.559230 0.699426 2.943647 182 188 190
-0.557211 0.706466 2.935064 136 137 135
-0.490635 0.550580 2.659614 96 113 89
-0.578789 0.744491 2.753344 164 169 172
-0.559259 0.721115 2.944544 122 114 111
-0.573221 0.774177 3.047364 182 187 193
-0.533276 0.664131 2.653970 98 108 92
-0.563554 0.773459 3.191686 159 161 162
-0.556633 0.738957 2.931973 154 155 154
-0.531327 0.668478 2.652553 98 108 92
-0.567486 0.777651 3.041767 211 219 223
-0.559324 0.779928 3.183081 169 173 174
-0.550934 0.785823 3.181286 194 201 206
-0.566950 0.850533 3.074056 144 138 132
-0.559052 0.846146 3.058420 169 169 172
-0.541875 0.815155 3.028294 168 161 151
-0.553456 0.853883 3.104045 157 158 157
-0.524162 0.774099 2.650076 146 120 102
-0.435320 0.545727 2.661467 112 122 99
-0.541945 0.855427 3.086706 177 179 181
-0.537076 0.846845 3.056245 164 160 158
-0.528468 0.842391 3.064901 197 204 206
-0.509863 0.791012 2.911254 165 169 176
-0.514303 0.843711 3.076532 185 190 194
-0.514526 0.846296 3.069698 154 157 156
-0.421477 0.631868 2.657174 96 78 68
-0.413477 0.684289 2.652771 114 86 74
-0.658688 0.554848 2.659427 115 104 96
-0.691018 0.562604 2.655760 83 80 73
-0.690979 0.562576 2.656018 100 81 76
-0.650391 0.583527 2.655547 120 105 96
-0.546102 0.588971 2.657168 73 64 56
-0.684164 0.609620 2.652616 126 136 122
-0.563473 0.598875 2.658544 112 121 105
-0.671260 0.611478 2.653150 115 114 111
-0.722200 0.653253 3.023126 223 225 226
-0.518487 0.609318 2.657989 127 106 101
-0.518443 0.609279 2.657850 137 117 103
-0.473335 0.640458 2.660553 108 94 81
-0.633108 0.687137 3.017768 239 242 246
-0.529159 0.660870 2.654923 95 113 90
-0.689629 0.699097 3.124765 227 232 237
-0.679233 0.710501 3.126953 209 214 219
-0.633654 0.707595 3.024688 240 245 250
-0.557822 0.696595 2.942400 186 191 195
-0.433126 0.675595 2.655757 119 94 87
-0.586099 0.717866 3.026024 236 241 245
-0.682130 0.733661 3.103706 217 219 224
-0.639875 0.733043 3.058820 236 241 247
-0.581328 0.724798 3.020330 222 227 230
-0.558227 0.725549 2.923316 175 182 187
-0.476286 0.716625 2.654329 114 91 82
-0.592596 0.740465 3.029389 204 211 217
-0.595255 0.740213 3.025094 216 221 227
-0.510394 0.740229 2.656178 80 59 56
-0.582149 0.761642 3.029583 192 196 205
-0.494737 0.760491 2.652733 140 113 101
-0.405162 0.744177 2.655301 180 149 125
-0.580192 0.765598 3.066986 182 187 193
-0.587508 0.760444 3.238761 236 241 245
-0.542736 0.769086 2.985416 232 239 244
-0.404718 0.762018 2.653421 103 80 73
-0.460121 0.775442 2.652915 160 132 119
-0.495664 0.787231 2.652333 152 125 109
-0.513586 0.795192 2.651686 100 84 84
-0.562274 0.782387 3.065768 179 184 187
-0.543711 0.784496 2.991142 198 205 211
-0.419388 0.782557 2.654690 107 82 75
-0.507016 0.811234 2.652233 91 74 71
-0.488078 0.808733 2.653992 100 82 80
-0.587148 0.793551 3.238384 224 229 233
-0.412909 0.810053 2.650231 100 80 80
-0.557685 0.794332 3.223304 184 189 195
-0.555945 0.802983 3.218970 211 218 225
-0.585034 0.808897 3.240020 231 234 237
-0.448310 0.834402 2.652345 101 89 92
-0.572731 0.829070 3.050918 187 188 191
-0.563591 0.871518 2.651820 82 69 69
-0.554501 0.816743 3.219202 228 233 240
-0.594898 0.825454 3.233429 236 241 247
-0.492707 0.883769 2.650811 92 74 71
-0.690912 0.844124 2.674482 213 222 232
-0.709257 0.813348 3.149666 229 233 239
-0.682919 0.833192 2.908816 178 187 197
-0.654323 0.835575 2.710488 85 83 93
-0.708882 0.773278 3.059753 233 237 244
-0.734311 0.723484 2.654957 79 70 79
-0.691650 0.779429 3.080233 206 204 208
-0.642969 0.827098 3.204843 219 225 229
-0.698713 0.753153 3.016898 202 209 217
-0.648275 0.806374 3.198847 227 231 239
-0.704976 0.740073 3.005356 230 234 244
-0.637365 0.799189 3.171054 198 202 204
-0.641850 0.796353 3.201851 198 200 202
-0.697118 0.731990 3.096465 222 227 232
-0.632349 0.789753 3.165182 218 223 229
-0.720804 0.655012 2.651892 127 123 110
-0.705756 0.693117 3.012070 227 232 238
-0.717014 0.644683 2.654617 113 106 101
-0.720609 0.672753 3.021515 228 232 240
-0.785386 0.580025 2.653230 89 71 61
-0.784877 0.580147 2.652931 82 68 59
-0.624535 0.762040 3.174004 229 234 240
-0.624015 0.763993 3.197664 208 211 216
-0.622841 0.767033 3.234004 203 204 208
-0.775821 0.580879 2.653778 97 80 70
-0.735413 0.611660 2.653677 66 65 54
-0.610695 0.766299 3.183805 178 180 185
-0.618996 0.760916 3.215425 206 209 214
-0.697303 0.626748 2.653979 77 71 61
-0.697267 0.626784 2.653972 77 71 61
-0.612974 0.750705 3.219488 198 200 207
-0.632816 0.713309 3.024574 232 239 247
-0.680042 0.673215 3.018678 223 227 236
-0.672466 0.621435 2.656093 116 131 117
-0.619229 0.704298 3.021632 221 226 232
-0.670147 0.644351 2.954683 189 195 202
-0.686813 0.588305 2.654879 78 79 62
-0.666837 0.644882 2.989514 221 228 238
-0.721870 0.556648 2.655269 66 55 53
-0.689404 0.559161 2.655612 74 65 64
-0.647984 0.572998 2.656461 66 59 53
-0.636469 0.580202 2.656582 130 111 93
-0.544387 0.547666 2.659571 116 107 100
-0.440946 0.560459 2.660448 114 110 91
-0.829522 0.581817 2.649222 124 104 97
-0.784036 0.597634 2.647940 108 108 95
-0.789405 0.626366 2.652544 113 94 86
-0.739381 0.563699 2.655872 88 80 76
-0.816694 0.690079 2.643238 128 108 100
-0.753911 0.622196 2.648233 91 90 80
-0.722009 0.653170 3.023382 221 229 231
-0.718561 0.679383 2.927317 186 185 189
-0.714339 0.636391 2.653943 132 131 121
-0.699840 0.691761 3.131345 221 225 227
-0.679923 0.623823 2.653185 133 143 128
-0.687595 0.645541 2.656372 114 112 110
-0.691500 0.704596 3.133635 202 206 206
-0.650139 0.582806 2.655472 83 71 64
-0.723037 0.784210 3.087393 234 234 241
-0.645986 0.620514 2.657741 105 101 96
-0.645725 0.620648 2.655281 92 84 76
-0.716451 0.796315 3.096617 203 201 198
-0.568585 0.556140 2.658568 44 45 42
-0.580395 0.616853 2.658747 100 103 93
-0.615062 0.680908 2.982698 178 182 188
-0.544105 0.557435 2.660448 65 66 66
-0.595586 0.663187 2.714465 217 224 232
-0.588677 0.643229 2.981373 234 239 245
-0.588403 0.657070 2.703679 216 223 231
-0.527696 0.549512 2.660415 120 131 112
-0.569023 0.638972 2.669894 135 139 145
-0.622894 0.731414 3.051673 233 237 241
-0.579052 0.650743 2.931291 199 206 215
-0.502634 0.554611 2.660850 109 107 96
-0.617890 0.751110 3.168279 193 197 202
-0.608256 0.749862 3.175688 223 226 230
-0.490457 0.574186 2.656715 78 69 65
-0.606848 0.764975 3.112222 228 235 241
-0.602069 0.752543 3.177755 207 212 217
-0.604693 0.754443 3.232774 227 231 234
-0.613203 0.774943 3.238303 233 234 237
-0.608839 0.779968 3.246088 238 243 248
-0.588033 0.760662 3.099383 194 201 209
-0.590795 0.753975 3.170326 210 220 228
-0.612885 0.794488 3.243777 234 239 243
-0.587921 0.750878 3.227615 199 203 210
-0.587427 0.759768 3.239757 224 228 235
-0.600997 0.794400 3.252344 237 240 244
-0.449604 0.591925 2.657838 128 102 92
-0.566757 0.769569 3.043248 195 202 211
-0.568791 0.771926 3.074481 186 191 197
-0.514606 0.756768 2.652232 114 88 77
-0.578839 0.768349 3.238795 199 204 208
-0.545538 0.756606 2.990260 195 202 208
-0.574642 0.768515 3.233479 225 231 233
-0.566360 0.778231 3.121678 201 206 212
-0.448949 0.648218 2.657071 113 91 82
-0.547588 0.815540 3.036486 192 192 197
-0.535995 0.814295 3.034068 205 210 216
-0.457198 0.792473 2.652816 98 78 73
-0.552895 0.819918 3.217140 229 233 237
-0.399954 0.742526 2.651833 166 135 115
-0.510541 0.854246 3.105356 209 214 217
-0.633399 0.818876 3.222016 233 240 248
-0.664858 0.800466 3.102838 212 214 219
-0.695674 0.783751 2.942081 198 204 215
-0.670583 0.775860 2.789326 190 199 208
-0.781142 0.713112 2.651061 94 77 76
-0.732822 0.722941 2.982310 238 243 249
-0.617889 0.760553 3.212827 203 211 219
-0.701064 0.721584 3.004798 231 238 245
-0.689942 0.717413 3.015433 208 217 224
-0.701663 0.705858 3.126937 221 225 232
-0.764815 0.661404 2.653466 103 92 90
-0.753591 0.664123 2.651948 88 77 72
-0.733413 0.663260 2.652971 96 92 91
-0.684215 0.691283 3.028912 215 222 230
-0.680665 0.673399 3.019404 221 226 232
-0.756302 0.609106 2.653688 86 99 87
-0.752781 0.567141 2.654445 53 49 45
-0.655850 0.554662 2.655501 104 92 85
-0.484763 0.586557 2.660664 94 78 69
-0.483198 0.587922 2.657789 88 70 60
-0.403215 0.896298 2.645363 99 78 74
-0.436560 0.871395 2.651566 111 93 92
-0.530467 0.866430 3.113922 198 207 217
-0.492573 0.883295 2.650452 99 82 79
-0.552736 0.874568 3.076744 177 184 193
-0.555717 0.871047 3.113338 203 209 217
-0.462128 0.747239 2.656086 123 100 96
-0.560717 0.872062 3.080223 159 159 160
-0.530939 0.819415 2.907155 176 181 186
-0.573068 0.869974 3.084110 184 191 201
-0.570112 0.840922 3.192724 198 207 214
-0.493206 0.757158 2.650946 120 99 97
-0.543829 0.822668 2.903998 161 165 173
-0.587720 0.846958 3.203400 158 165 177
-0.554195 0.810344 2.966019 213 220 228
-0.587981 0.862678 3.089137 183 188 194
-0.589671 0.841929 3.199304 144 149 160
-0.568352 0.827335 2.936356 171 181 193
-0.590358 0.847144 3.066462 199 201 205
-0.601512 0.848644 3.210315 175 182 191
-0.602479 0.846669 3.218518 235 242 248
-0.606018 0.850948 3.198793 204 211 220
-0.573064 0.800278 2.991576 147 150 157
-0.598769 0.820283 3.238152 216 224 231
-0.602077 0.825052 3.233165 229 236 238
-0.613798 0.842021 3.220713 237 241 244
-0.588684 0.808438 2.992566 145 148 155
-0.599148 0.806979 2.991632 194 199 206
-0.598560 0.806432 2.991101 194 199 206
-0.632014 0.826319 3.089110 178 183 187
-0.634299 0.818964 3.223185 239 244 247
-0.633279 0.821770 3.081794 161 166 176
