ply
format ascii 1.0
element vertex 1183
property double x
property double y
property double z
property uchar red
property uchar green
property uchar blue
end_header
-18.813641 -6.633983 2.061495 208 200 196
-21.237906 -7.775000 3.361128 100 101 95
-19.122403 -6.836508 3.048392 174 169 160
-19.465676 -6.972030 3.051923 174 169 160
-26.321872 -10.132866 6.586618 50 63 53
-19.356657 -6.939711 3.523838 84 90 81
-20.032370 -7.725984 10.433849 71 86 83
-18.777024 -6.443349 2.043961 174 159 150
-19.637718 -6.691430 3.005823 182 174 171
-18.803348 -6.312051 2.632225 178 169 163
-0.972710 0.862771 2.365258 144 133 131
-18.637165 -6.079749 2.050961 168 157 147
-20.795067 -7.039624 3.451821 106 106 101
-19.891026 -6.590368 2.919631 192 181 169
-28.070761 -10.605032 12.010918 49 66 61
-24.167898 -8.692502 7.805740 37 51 41
-0.298347 1.135201 2.358395 100 84 84
-9.587016 -2.383505 1.265900 179 177 179
-21.019675 -6.980504 3.329704 108 106 102
-23.389530 -8.182681 6.258733 73 92 63
-11.291786 -2.992174 1.414195 196 194 195
-19.143429 -6.071306 2.697424 207 194 185
-19.990901 -6.383824 2.731456 197 183 169
-27.788626 -10.290558 13.422342 64 82 93
-20.053187 -6.287592 2.961329 74 73 65
-20.038726 -6.234678 3.221016 138 135 127
-24.987194 -8.323389 6.940692 20 30 30
-9.348173 -2.036429 1.233146 189 185 187
-19.578711 -5.848810 2.590273 206 193 184
-8.480807 -1.657307 1.088132 179 175 177
-0.187637 1.201878 2.360979 118 98 91
-20.416647 -6.120460 3.509141 81 83 80
-17.363800 -5.017765 3.397121 81 83 80
-25.376161 -8.161579 6.528652 35 46 38
-20.394854 -6.025843 2.839441 105 103 96
-19.499042 -5.634727 2.210804 217 205 194
-19.350054 -5.588423 2.215477 217 205 194
-33.086230 -11.703481 14.834605 59 77 90
-20.233187 -5.952043 3.220046 108 110 106
-20.965291 -6.181883 3.089230 156 148 146
-17.903031 -5.100626 3.040219 156 148 146
-19.429062 -5.550621 2.418008 190 178 169
-19.153319 -5.449203 2.588051 149 139 131
-27.390776 -9.142723 11.334692 61 78 72
-17.737586 -4.829030 1.842938 211 207 204
-19.613292 -5.499219 2.366914 201 191 183
-20.355491 -5.816709 3.584416 82 96 87
-12.779986 -3.008815 1.495049 192 190 192
-20.675582 -5.791290 3.141565 201 198 197
-20.798719 -5.780903 3.395220 192 195 191
-9.221937 -1.684043 1.267744 189 185 186
-27.409204 -8.465333 8.241338 40 53 41
-9.761689 -1.850436 1.227966 194 190 192
-25.755878 -7.944197 9.311073 86 101 70
-20.486190 -5.758699 5.123474 145 168 151
-20.028701 -5.597031 5.110906 145 168 151
-0.141848 1.238916 2.361047 91 73 71
-13.603163 -2.997883 1.451606 188 186 189
-0.564091 1.115213 2.361725 121 108 105
-26.101387 -7.514571 8.629913 35 47 48
-7.882204 -1.027679 1.130580 201 198 196
-20.933381 -5.280077 3.327477 146 147 145
-25.797449 -7.287086 8.446712 30 40 42
-20.459167 -5.011166 2.696637 166 162 159
-20.562763 -4.910334 1.904867 209 204 204
-23.269854 -6.433319 8.684426 40 51 53
-0.259987 1.220838 2.357010 93 79 76
-21.445764 -5.267314 3.427375 187 183 181
-8.286182 -1.039047 0.941754 200 195 194
-0.147218 1.256869 2.361129 92 74 73
-21.367474 -5.164943 3.203407 194 194 191
-23.627235 -6.564316 9.998500 66 85 77
-28.505967 -7.758662 8.317120 43 57 42
-21.841877 -5.177121 2.793814 108 110 111
-20.323540 -4.804636 3.531729 114 119 112
-27.990259 -7.632382 9.185002 48 64 54
-20.277280 -4.676592 2.929775 188 188 185
-26.987639 -7.008914 6.656936 29 45 36
-23.681301 -5.910435 5.559302 66 89 71
-25.791439 -6.677514 7.517879 69 82 66
-0.225534 1.243417 2.360428 102 84 80
-22.344098 -5.139540 2.850985 109 114 117
-24.646593 -6.556996 10.046261 48 64 69
-21.589382 -4.853302 3.541371 93 101 92
-27.937407 -6.912335 6.168494 33 43 37
-22.004879 -4.649365 2.834163 115 116 114
-28.717798 -7.203224 9.411483 32 43 47
-0.385011 1.213965 2.364788 105 91 88
-21.901285 -4.547233 3.695204 164 187 171
-21.135272 -4.260154 3.522385 99 111 98
-29.557558 -7.073677 9.397928 49 64 60
-0.622763 1.168200 2.363665 101 91 92
-0.656937 1.163190 2.375906 130 119 115
-26.342696 -5.698951 6.499155 31 42 40
-22.781273 -4.337548 2.429169 198 191 189
-25.911834 -5.656979 7.219730 41 56 50
-22.313815 -4.279800 3.557887 110 122 108
-25.663770 -5.605152 8.172902 101 120 91
-23.518976 -4.817459 5.931389 62 76 58
-22.068204 -4.025692 2.492706 204 198 197
-26.916110 -6.201941 11.235240 103 120 114
-13.214753 -1.725387 1.397304 183 181 184
-0.064154 1.328288 2.356863 92 71 66
-24.775316 -4.601152 5.678673 93 109 76
-22.395844 -3.590623 2.572884 111 113 104
-22.314724 -3.439974 2.955791 159 158 156
-21.139757 -5.577912 2.463136 158 149 143
-20.942661 -5.258978 3.572798 105 119 107
-21.560599 -5.014535 7.418487 23 33 28
0.030898 0.529289 2.381232 91 70 63
-8.246205 -1.824454 1.013900 158 155 154
-21.381680 -5.321192 2.229644 177 166 159
-24.933348 -5.815802 8.378173 44 59 56
-23.960070 -5.569221 8.157677 44 59 56
-21.108600 -5.220626 2.352395 165 157 149
-20.923574 -5.031001 2.524908 159 152 147
-10.098472 -2.236116 1.185114 169 167 169
-21.198000 -5.074908 2.351049 175 164 155
-0.443229 0.411589 2.389389 105 91 86
-8.533221 -1.799286 1.040078 148 145 144
-27.066870 -6.167458 6.644019 34 50 40
-21.644219 -4.995564 2.481792 156 150 146
-22.840642 -5.175613 3.583490 82 101 86
-26.346369 -5.446814 11.259616 78 97 104
-8.475393 -1.671481 1.027612 164 160 162
-30.061567 -6.346615 10.651399 39 53 61
-23.105413 -5.078041 3.202674 181 181 178
-21.981501 -4.864135 2.268760 159 150 144
-26.488734 -5.560710 7.921738 42 54 43
-0.221603 0.489022 2.384372 106 87 78
-25.669948 -5.234044 8.118746 33 44 39
-21.877842 -4.524873 5.039491 154 178 159
-13.115249 -2.648518 1.430517 186 184 185
-21.963262 -4.545189 4.405819 162 186 167
-22.192897 -4.723193 2.230661 163 154 149
-22.916250 -4.772892 2.987510 176 174 170
-28.402234 -5.674860 8.115748 83 101 80
-26.383436 -5.214918 7.735713 63 76 56
-10.957762 -1.978063 1.165536 176 174 175
-22.311270 -4.371217 2.349390 194 190 187
-22.770105 -4.325341 2.556018 186 183 181
-23.220229 -4.434757 2.417777 151 146 142
-23.143709 -4.370243 2.994492 180 177 172
-0.698022 0.414282 2.390856 98 90 87
-29.278778 -5.376233 6.534680 62 75 54
-0.617205 0.435486 2.389533 91 83 80
-23.115942 -4.025579 5.501831 55 64 42
-22.807393 -4.080198 3.675916 144 167 150
-8.502044 -1.230647 0.961299 187 182 179
-33.853269 -5.575303 13.352232 57 77 91
-27.281417 -4.665419 6.224210 58 70 55
-24.161015 -4.007289 6.361690 30 41 30
-22.816976 -3.747385 4.621537 143 165 149
-22.747886 -3.734964 4.276173 151 172 154
-10.244789 -1.491825 1.076563 171 169 171
-24.854722 -4.075823 5.395793 89 106 67
-23.520301 -3.906168 3.666633 143 168 146
-25.581426 -4.109617 6.901022 75 91 56
-28.679499 -4.483490 9.182213 52 68 68
-26.586145 -3.992132 10.538371 47 61 69
-23.846047 -3.921362 2.686280 83 86 83
-27.278894 -4.353301 6.026036 57 70 50
-26.295825 -3.944683 9.919727 58 73 66
-0.211493 0.539886 2.384170 110 99 90
-7.687636 -0.925958 0.869452 188 183 180
-23.815391 -3.623134 2.390147 115 113 104
-23.781825 -3.291150 2.724675 81 83 84
-0.247098 0.553299 2.383297 140 137 128
-19.152035 -2.552436 1.612470 187 185 186
-29.110899 -3.929133 6.489572 75 84 61
-23.606594 -3.229989 2.255287 73 84 70
-24.597109 -3.305922 2.976040 139 138 134
-27.880305 -3.587557 6.602076 33 44 37
-0.461177 0.532861 2.382502 139 122 114
-25.277699 -2.692841 8.447594 71 85 70
-25.988675 -2.713460 9.408379 81 94 86
-24.731999 -2.583198 8.178885 54 66 59
-25.320844 -2.631310 8.609615 52 67 57
-0.314015 0.565680 2.386709 123 114 107
-0.602993 0.527908 2.380032 89 82 78
-0.247270 0.576894 2.381227 125 128 115
-29.484123 -3.164309 6.345390 48 61 40
-0.831193 0.506840 2.388700 105 97 94
-0.467225 0.557413 2.380783 112 103 93
-23.081067 -2.308989 2.738569 68 69 65
-24.306621 -2.469172 2.732607 68 69 65
-25.671406 -2.333624 8.394190 71 83 71
-0.602827 0.565832 2.377393 90 81 76
-23.856536 -1.889572 2.746170 80 81 78
-23.676429 -1.832116 2.832287 90 91 87
-26.045087 -1.835937 7.417527 68 81 64
-0.169414 0.617134 2.381802 98 110 90
-22.738118 -1.663245 2.476772 111 105 92
-12.651396 -0.642851 0.866837 137 133 130
-22.924740 -1.525016 2.812722 99 100 95
-12.229027 -0.348249 1.252256 177 175 176
-0.851572 0.587886 2.373170 87 79 79
-0.543397 0.612306 2.375442 143 144 130
-0.271452 0.635585 2.379026 71 72 64
-0.058240 0.652235 2.378665 116 92 78
-23.956321 -0.995523 2.339293 70 76 61
-0.134958 0.649557 2.379813 115 99 85
-7.203014 0.144262 1.018990 154 146 143
-0.863302 0.608772 2.374448 89 81 81
-0.586141 0.627278 2.375772 116 106 98
-0.071960 0.658750 2.379624 88 76 67
-13.509155 -0.157775 1.236128 154 153 151
-10.481051 0.045648 1.113505 158 153 152
-0.381510 0.650525 2.378806 126 116 105
-0.380916 0.650506 2.378985 126 116 105
-20.527972 -0.171564 3.019318 84 86 82
-19.966700 -0.125509 2.381225 119 94 78
-0.499965 0.658860 2.373804 126 114 104
-21.208466 -0.087594 2.930180 138 140 135
-0.338241 0.667109 2.376498 117 119 106
-20.375711 -0.046507 2.217354 149 145 137
-19.181619 0.051025 2.552473 98 95 86
-0.447018 0.672473 2.376759 122 131 113
-21.934630 0.109220 2.726275 80 84 80
-0.210349 0.683499 2.377302 99 83 73
-0.407476 0.694911 2.402054 100 109 92
-24.322374 0.715616 6.818907 64 82 69
-0.203848 0.701117 2.376986 77 82 67
-27.856541 0.762450 5.840154 35 45 37
-0.440096 0.701623 2.375715 114 121 106
-0.602417 0.702123 2.375788 123 111 105
-22.939317 0.846380 4.991097 20 29 28
-28.420003 0.939808 5.319875 24 33 32
-0.583780 0.713901 2.376564 129 116 108
-8.977507 0.810536 0.817207 171 164 158
-0.298459 0.730843 2.654740 108 103 100
-0.297965 0.731903 2.691783 110 101 95
-28.521417 1.581857 5.120917 23 33 35
-0.340644 0.732886 2.425424 185 196 198
-0.327809 0.732780 2.420392 158 160 165
-20.834038 1.527446 5.125574 40 50 45
-0.090325 0.730385 2.376996 132 105 93
-0.696619 0.756866 2.370866 103 95 92
-0.088047 0.734420 2.373914 143 116 98
-0.005862 0.733257 2.376586 97 76 70
-0.277830 0.746226 2.373592 87 78 76
-0.294432 0.752233 2.659406 114 105 103
-0.256726 0.750854 2.378275 122 121 118
-0.373159 0.771624 2.806841 200 205 209
-0.287865 0.765817 2.711361 99 88 82
-36.306608 3.060164 5.232210 43 54 49
-0.312219 0.771256 2.781700 173 177 182
-0.287089 0.771264 2.712985 100 92 88
-0.330718 0.784655 2.798761 212 217 222
-0.309155 0.784781 2.774441 185 191 188
-0.407687 0.797759 2.902231 146 152 153
-0.308692 0.787478 2.659181 120 112 109
-0.108285 0.768337 2.375377 131 103 84
-0.283811 0.787993 2.688441 149 147 147
-0.428052 0.806179 2.925579 205 210 216
-0.321308 0.791397 2.491142 169 173 178
-0.330796 0.797718 2.809050 184 189 193
-0.287505 0.799036 2.684547 98 86 83
-0.275975 0.798477 2.384534 126 124 129
-0.132728 0.792428 2.373149 154 126 107
-0.297142 0.814325 2.766365 167 168 168
-0.045997 0.784311 2.373042 94 71 64
-0.300991 0.817261 2.789628 176 180 182
-0.160297 0.797942 2.373556 95 76 66
-0.311021 0.816033 2.504259 137 136 141
-0.116918 0.796503 2.371862 159 131 110
-0.270338 0.817651 2.759675 204 207 213
-0.070961 0.793265 2.373976 155 126 108
-0.308976 0.823133 2.489397 164 168 172
-0.274054 0.821458 2.702864 160 164 165
-0.302573 0.827427 2.769441 175 176 179
-0.315770 0.830437 2.810371 175 180 184
-0.278267 0.829822 2.761110 199 204 207
-0.298318 0.831709 2.471376 154 157 162
0.104188 0.778093 2.375469 100 77 71
-0.084106 0.803670 2.372947 107 80 68
-0.272592 0.832254 2.696383 135 135 136
-0.271595 0.831994 2.696377 135 135 136
0.078475 0.783834 2.377221 84 63 58
-0.319700 0.842469 2.829206 189 194 200
-0.268274 0.835676 2.754159 172 174 171
-0.032627 0.801773 2.373740 99 74 66
-0.309991 0.844991 2.781217 175 180 183
-0.265516 0.838285 2.707906 111 109 109
-0.102756 0.817041 2.373249 159 128 108
-0.066854 0.812509 2.370720 162 133 117
-0.081651 0.815319 2.373563 104 77 65
-0.298557 0.849545 2.485475 171 175 180
-0.300590 0.850096 2.484230 171 175 180
-0.257298 0.843526 2.695017 124 118 119
-0.296986 0.849717 2.485354 171 175 180
-0.301771 0.853034 2.965186 183 190 198
-0.290512 0.852101 2.770803 198 202 211
-0.301962 0.854430 2.489236 165 168 173
-0.298928 0.855087 2.820303 157 159 163
-0.300356 0.856209 2.783830 190 194 201
-0.287558 0.854544 2.439063 183 189 197
-0.024647 0.813681 2.373863 92 70 62
-0.300064 0.857994 2.833094 144 147 150
-0.289954 0.856853 2.765603 197 202 208
-0.251355 0.852084 2.692225 114 106 104
-0.288833 0.860363 2.797330 172 176 179
-0.293628 0.861395 2.868590 168 173 179
-0.280592 0.862027 2.777997 215 222 225
-0.289532 0.867002 2.527174 138 138 142
-0.288160 0.867172 2.545115 141 141 140
-0.257584 0.862581 3.005697 149 155 161
0.071247 0.807609 2.375536 94 75 70
0.082469 0.806162 2.376377 84 65 61
0.083158 0.806094 2.376840 84 65 61
-0.294189 0.872535 2.453992 120 131 143
-0.253759 0.866609 2.647704 172 179 183
-0.245535 0.867072 2.688570 112 102 98
-0.138859 0.849175 2.371573 154 127 108
0.071353 0.813485 2.374658 79 60 55
-0.287999 0.878560 2.952608 166 171 178
-0.303901 0.883918 2.436903 142 150 165
0.032566 0.822047 2.373472 91 72 66
-0.237303 0.872447 2.684412 176 180 183
-0.157505 0.859975 2.368812 101 77 69
-0.156745 0.860060 2.368987 101 77 69
-0.231237 0.875923 2.659180 149 153 156
0.100090 0.814119 2.375253 82 61 56
0.100048 0.814150 2.375162 82 61 56
-0.173519 0.868330 2.371375 155 130 112
-0.270392 0.887864 2.823795 145 146 145
-0.264222 0.889573 2.413586 129 140 153
0.018220 0.833479 2.373029 87 68 63
-0.079666 0.855808 2.372099 89 70 63
-0.216908 0.882197 2.715780 116 111 107
-0.120091 0.864659 2.369466 84 64 57
-0.080998 0.857675 2.373833 83 63 57
-0.232509 0.887683 2.702277 102 91 86
0.106682 0.820599 2.375984 79 58 53
-0.374243 0.921005 2.440669 171 179 185
-0.229562 0.893001 2.697159 147 148 152
-0.218479 0.892216 2.711733 105 106 109
-0.243141 0.906465 2.814477 175 174 174
-0.243487 0.906514 2.814650 175 174 174
-0.238894 0.909262 2.702534 90 86 89
-0.049910 0.868750 2.371634 85 67 63
-0.222914 0.906530 2.720426 119 120 125
-0.293710 0.921787 2.840466 125 115 107
0.097554 0.839785 2.372969 78 58 52
0.012794 0.870027 2.370872 80 61 57
-0.213478 0.929397 2.372389 87 73 72
0.065538 0.857681 2.374594 80 59 54
-9.071145 3.255986 0.783826 157 152 148
-0.297208 0.949601 2.673624 105 100 103
-28.882503 8.421517 3.245941 156 156 152
-0.381431 0.972348 2.703694 84 85 91
-0.278327 0.943904 2.996807 168 174 192
-0.026044 0.887255 2.372455 77 58 55
-0.177742 0.931474 2.371596 92 76 74
-0.178422 0.931711 2.371578 92 76 74
-0.216731 0.950440 2.369392 79 65 64
-9.141186 3.530106 0.860008 149 144 141
0.067772 0.875876 2.375582 75 55 49
0.062571 0.877673 2.372418 75 55 49
-26.812679 8.666671 3.169620 159 162 162
0.036781 0.886696 2.368383 77 58 54
-0.962820 1.187850 2.364441 108 100 97
-21.858267 7.437967 1.392713 106 106 100
-11.823641 4.542588 0.706356 167 162 158
-0.278927 0.998047 2.368347 86 72 71
-23.940217 8.430256 1.900972 72 78 85
0.115159 0.876801 2.373771 63 45 39
-9.042611 3.819888 0.839277 157 152 148
-21.218520 7.845324 1.336459 95 93 92
-0.070552 0.946092 2.370986 41 44 54
-22.486431 8.511981 1.929788 93 98 103
-22.503682 8.499452 3.056193 41 44 48
-9.609136 4.222321 0.636241 154 151 146
-0.664576 1.152523 2.361803 101 93 90
0.146970 0.878611 2.373837 58 44 38
-11.560323 4.896712 0.762952 158 153 149
-21.438287 8.261185 2.058982 93 98 103
0.094990 0.899373 2.372026 81 61 56
-22.773755 8.867264 1.415652 76 85 89
-23.525051 9.091741 4.750509 43 48 60
-11.586981 5.054206 0.815781 164 159 155
-0.089382 0.968272 2.369972 86 68 64
-22.098983 8.703878 3.049144 37 40 45
-0.795287 1.219088 2.357668 104 96 93
-21.752314 8.717018 2.065564 31 36 42
-0.380217 1.077407 2.363964 65 60 60
-22.103164 8.848542 2.865718 23 26 29
-22.338708 8.998096 1.711592 93 115 127
-9.674779 4.525109 1.435476 163 158 154
0.105717 0.909920 2.374343 60 46 38
-21.140112 8.707815 3.049653 82 64 64
-10.688481 5.002375 0.818345 145 141 138
-19.549079 8.329133 2.672536 69 38 36
-19.602949 8.357887 2.834050 58 36 39
-20.523059 8.809229 1.362465 85 82 84
-13.989052 6.335311 0.962532 155 150 146
-21.074694 9.047671 1.990586 37 40 43
-22.302563 9.514991 3.058024 118 76 67
-21.337310 9.153281 2.586190 72 45 40
-19.721132 8.664808 1.377060 131 122 113
-20.591402 8.996466 2.191209 25 33 42
-22.414443 9.615225 5.000956 47 50 59
-0.006174 0.968785 2.372083 86 68 66
-16.010071 7.491055 0.797182 156 151 147
-14.922254 7.194010 0.836162 145 140 136
-21.109709 9.727155 3.134003 165 160 156
-22.338973 10.185645 4.988567 41 46 51
-12.646069 6.392581 0.915053 144 139 135
-23.162823 10.701355 4.896681 57 62 66
-23.491330 10.972030 3.703043 40 45 56
-21.779552 10.360044 2.375358 17 19 25
-22.573821 10.577849 5.010428 40 43 50
-13.904623 7.054294 0.977119 159 154 150
-9.295240 5.131105 0.742834 138 134 133
-21.019474 10.252196 1.620662 83 101 115
-11.067790 5.925909 0.837683 149 144 141
-23.651225 11.424952 2.121111 30 35 41
-21.393239 10.483356 1.988399 24 29 36
-22.788048 10.979454 5.038394 40 43 49
-8.297634 4.809323 0.612601 152 148 145
-45.724177 21.127211 11.918134 208 217 227
-20.562848 10.412098 1.447636 28 33 40
-21.831856 11.035151 2.024501 160 163 173
-20.465335 10.371340 3.427339 35 42 50
-0.464338 1.224644 2.363535 90 81 76
-20.877560 10.611134 2.970434 127 88 88
-12.345900 6.813282 0.825302 145 140 137
-20.693486 10.652795 1.683718 52 45 51
-20.915399 10.695769 3.090359 59 52 56
-20.579604 10.684037 1.143877 60 64 68
-9.666974 5.603213 0.788047 150 145 142
-9.324384 5.458619 0.729587 123 122 120
-20.707947 10.767073 2.114909 124 120 122
-23.283566 12.093948 3.689477 32 36 45
-20.191581 10.765314 1.180225 66 69 72
-28.149904 14.561824 3.027563 127 95 99
-19.633007 10.522705 1.605387 51 58 65
-15.481076 8.594697 0.523032 151 146 142
-21.809733 11.590445 1.728688 111 123 131
-20.823859 11.071664 3.200398 101 88 91
-23.506881 12.355132 4.939211 56 57 62
-0.094410 1.076569 2.365721 60 51 51
-0.460845 1.264291 2.364326 85 76 71
-21.266572 11.651523 1.862434 23 27 36
-20.162428 11.121319 2.136882 97 59 60
-28.259527 14.920296 7.503546 192 202 213
-23.704142 12.769995 4.962922 51 55 59
-0.350836 1.214832 2.364972 87 76 74
-9.502953 5.958090 0.685332 142 138 137
-21.157871 11.749385 3.084717 48 36 40
-9.814221 6.122999 0.732848 137 132 129
-7.607053 5.007849 0.738720 145 141 138
-22.190537 12.259244 5.006144 35 38 44
0.059023 1.015231 2.366192 63 52 50
-0.673120 1.400056 2.351619 92 82 80
-23.018650 13.015185 3.105803 43 48 56
-23.884268 13.512304 4.978619 48 52 56
-23.746749 13.439641 4.961351 48 52 56
-22.410080 12.904329 3.188107 29 37 45
-23.789657 13.688078 3.027713 41 49 56
-14.389400 8.901650 0.843237 145 140 136
-0.025935 1.077822 2.368237 59 49 47
-23.049948 13.364924 5.147940 34 38 45
-21.881673 13.061403 3.608559 89 94 93
-0.008814 1.084092 2.366089 59 48 45
-24.262491 14.525992 6.168802 65 70 80
-19.369607 12.074211 0.987014 133 129 125
-0.096843 1.138034 2.365707 63 52 50
-21.673181 13.489647 1.337856 57 61 68
-21.835885 13.594172 2.310492 84 89 94
-22.313602 13.959455 1.439260 52 53 60
-22.119997 13.880726 3.603469 117 123 129
-0.636420 1.467878 2.355813 78 73 76
-22.254957 13.933768 6.269370 143 146 153
-22.165379 14.118238 3.194228 35 27 30
-22.490476 14.139117 5.798428 86 90 99
-21.884940 14.041214 4.026926 62 61 72
-22.157479 14.214559 4.040409 62 61 72
-21.175832 13.674386 4.320637 90 94 103
-13.149868 9.135990 0.708846 140 132 129
-21.552608 14.168802 3.882785 133 138 147
-20.299889 13.614917 2.748336 24 58 105
-15.736421 4.912516 0.980820 152 151 148
-8.577481 2.757681 0.747033 146 143 139
-10.488293 3.383167 0.876195 143 142 140
-35.050727 11.284929 3.083163 125 134 138
-22.209763 7.216525 1.991100 98 91 83
-26.873268 8.643928 1.841972 98 91 83
-18.489093 6.043127 1.077154 153 151 148
-9.409853 3.220757 0.735956 155 151 148
-8.996851 3.233235 0.801055 152 148 145
-16.774362 5.903426 0.488991 156 153 148
-1.051525 0.662397 2.373616 96 91 90
-26.344726 9.760932 4.979362 48 58 70
-12.876203 4.811931 1.037881 156 153 148
-16.869108 6.300768 0.916163 154 150 147
-20.839321 8.058365 2.894884 20 25 34
-16.327141 6.220291 0.880866 160 156 153
-18.723116 7.242680 1.578704 120 115 110
-20.567804 7.927306 1.468520 114 117 116
-22.033802 8.853702 4.625657 54 59 67
-23.034622 9.026936 1.917224 38 48 60
-20.874529 8.746793 3.087643 41 43 53
-11.264302 4.762224 1.110623 150 147 142
-18.344465 7.651746 1.264612 172 164 155
-20.410636 8.748149 3.036080 159 98 89
-18.902054 8.126241 3.022002 90 63 65
-19.094307 8.274354 2.749389 53 39 35
-20.608905 9.150608 4.817926 45 49 59
-21.770877 9.831631 2.117753 31 34 36
-0.995146 0.765619 2.369919 100 90 88
-0.231202 0.445153 2.384916 98 74 65
-22.013796 10.594820 3.591235 35 43 52
-24.513023 11.907955 3.810063 39 49 56
-20.719144 10.107107 3.091272 154 150 143
-11.264930 5.523450 0.858508 151 148 143
-62.119570 31.376306 17.602302 248 249 251
-0.960306 0.830370 2.365388 107 97 95
-20.565630 10.470185 1.263197 28 35 42
-23.993308 12.513442 3.169509 106 63 58
-24.228002 12.767894 3.001090 141 119 118
-18.033894 9.546679 1.604717 84 85 80
-18.475559 9.761511 1.582226 84 85 80
-21.304724 11.358631 3.346528 46 49 57
-0.097582 0.417601 2.386740 102 82 74
-20.774523 11.726194 8.023721 232 234 240
-22.462925 12.386630 4.666991 33 41 46
-0.405253 0.592876 2.376944 96 88 78
-9.095430 5.185075 0.748019 140 137 132
-8.850874 5.083279 0.857467 141 137 133
-21.671644 12.311020 4.531929 34 39 44
-24.842376 14.035405 3.280257 57 66 77
-25.248430 14.571319 7.218253 236 235 230
-22.685619 13.157664 5.108733 38 43 49
-22.394236 13.276782 7.613168 71 87 107
-0.489506 0.658315 2.376671 111 102 93
-0.178179 0.484343 2.382473 124 100 88
-0.452815 0.638201 2.375539 74 56 50
-0.109561 0.449715 2.384653 117 95 83
-22.497061 13.472210 5.626942 50 52 58
-0.575275 0.716748 2.377775 128 113 106
-23.219474 14.080936 6.742520 66 75 87
-1.034136 0.985893 2.366340 105 97 94
-0.511961 0.686038 2.377717 62 73 59
-20.582442 12.636538 7.486910 140 157 171
-0.272864 0.551189 2.382524 103 99 85
-19.541788 11.993718 2.436627 79 89 93
-0.282500 0.567570 2.379628 106 99 88
-0.289404 0.570590 2.375914 106 99 88
-21.881121 13.723478 6.214218 156 160 163
-0.414026 0.645787 2.379003 76 74 68
-12.637691 7.853032 0.027912 146 143 138
-0.046860 0.429461 2.385780 71 54 49
-20.932253 13.092875 2.297215 91 97 103
-0.093470 0.460294 2.385297 125 103 89
-0.422067 0.668522 2.380826 123 131 116
-0.433883 0.676547 2.375639 134 143 126
-0.335697 0.619969 2.379526 67 67 62
-0.069250 0.455961 2.384312 79 58 53
-0.056625 0.448682 2.384983 89 69 60
-0.118981 0.488312 2.382899 101 79 68
-19.910486 13.392144 7.611751 28 41 58
-0.149522 0.513981 2.382528 108 86 73
-12.678166 8.518491 0.098360 153 148 142
-0.188772 0.543394 2.382404 73 67 57
-19.245758 13.284454 6.815734 116 147 175
-19.691846 13.618176 5.816169 85 132 174
-0.158603 0.530110 2.381724 92 76 61
-18.618823 13.102381 8.138594 171 186 195
-18.665620 13.072257 5.808071 96 139 181
-0.009257 0.436415 2.386625 66 48 44
-0.464493 0.741223 2.374417 111 114 105
-16.461653 11.902835 8.360691 165 178 191
-0.457144 0.744314 2.373113 116 110 102
-0.391269 0.718313 2.723460 145 148 151
-18.616525 13.411643 6.076130 102 144 184
-0.031994 0.458624 2.383918 72 52 47
-0.327301 0.660901 2.375641 104 96 86
-0.184233 0.563866 2.382543 83 97 73
-0.389545 0.721878 2.702118 144 144 141
-0.330655 0.667999 2.381444 112 115 99
-0.438859 0.746863 2.383957 61 64 60
-16.490916 12.127159 5.693443 92 137 178
-0.098119 0.509907 2.382683 87 68 58
-17.047016 12.656028 5.945993 108 147 182
-0.106696 0.520160 2.378860 84 64 58
-0.930297 1.104278 2.359330 87 79 72
-0.379018 0.735698 2.781274 201 206 210
-10.025572 7.577880 0.613524 170 165 161
-11.974538 9.100050 0.768376 157 150 147
0.004670 0.451024 2.386865 62 47 44
-0.367632 0.730619 2.409179 211 219 225
-0.242264 0.637499 2.374950 54 54 51
-0.417243 0.791212 2.894456 168 170 169
-0.324417 0.717913 2.732085 164 167 172
0.018380 0.448375 2.385203 54 40 39
-0.328491 0.712311 2.400704 193 196 199
-0.361324 0.757375 2.786882 235 240 245
-0.113638 0.553685 2.380430 93 79 66
-16.397823 13.410567 10.196311 83 100 115
-0.041504 0.502120 2.382410 103 79 69
-0.310623 0.723384 2.668365 148 150 153
-16.218323 13.406465 10.935978 73 93 119
-0.321159 0.733285 2.713097 145 149 151
-0.010642 0.483084 2.383331 71 53 50
0.017209 0.465015 2.384262 53 42 40
-0.209646 0.645455 2.377498 68 62 53
-0.312960 0.729620 2.426311 172 177 183
-0.313298 0.729829 2.425889 172 178 184
-0.201874 0.640802 2.377884 57 54 47
-0.312678 0.729681 2.426650 144 147 156
-0.313146 0.729989 2.426296 172 177 183
-0.170005 0.616705 2.380202 102 120 98
-0.101661 0.566972 2.381100 131 114 101
-0.012293 0.497830 2.384230 78 60 53
-0.325641 0.755193 2.458507 208 214 222
-0.279773 0.727439 2.733612 167 171 179
-0.403673 0.833677 2.873129 175 180 184
-0.288997 0.735180 2.719719 142 143 145
-0.286688 0.733480 2.719764 140 141 141
-0.293555 0.741162 2.713772 118 111 107
-0.126302 0.593006 2.380163 143 125 110
0.023740 0.471154 2.384528 54 42 40
-0.324025 0.758091 2.452260 173 181 187
-0.323394 0.757433 2.452809 140 146 153
-0.344641 0.784250 2.636389 145 144 140
-0.335138 0.775841 2.637312 163 162 159
-0.138238 0.606972 2.379874 95 81 67
-0.400998 0.839808 2.870327 182 190 198
-0.400749 0.839637 2.870490 207 212 218
-0.318594 0.771595 2.779829 190 194 195
-0.324119 0.769733 2.478891 155 160 164
-0.293517 0.740447 2.387282 192 200 205
-0.392469 0.839205 2.857410 187 192 196
-0.183746 0.650648 2.378528 82 65 52
-0.297036 0.755031 2.659882 109 107 103
-0.141250 0.615737 2.381187 86 75 62
-0.367853 0.820524 2.832899 209 217 222
-0.004043 0.503034 2.383309 82 62 58
0.018546 0.485077 2.383718 49 40 39
0.018123 0.485397 2.383439 49 40 39
-0.330818 0.783410 2.514647 143 147 149
0.026729 0.480320 2.387407 59 49 47
-0.351285 0.815119 2.821608 219 226 233
-0.180969 0.659525 2.377323 90 71 61
-0.001902 0.507349 2.383546 90 70 60
-0.305501 0.775974 2.669569 80 66 60
-0.296272 0.769466 2.710300 96 88 83
-0.008416 0.514147 2.382791 72 53 49
-0.317886 0.792474 2.800219 170 175 181
-0.322429 0.788060 2.532804 158 159 161
-0.322943 0.790585 2.548726 126 125 130
0.040897 0.473853 2.386280 55 47 45
-0.321341 0.791982 2.490984 155 160 167
-0.321619 0.791707 2.490221 162 169 175
-0.376809 0.851648 2.873201 200 208 214
-0.279007 0.753085 2.379217 70 58 55
0.016018 0.500989 2.383276 67 51 46
-0.289945 0.777740 2.675632 94 84 82
-0.312682 0.801767 2.796025 160 163 165
-0.248944 0.735019 2.376544 70 81 70
-0.245395 0.733034 2.378548 70 81 70
-0.353450 0.842876 2.859283 165 172 180
-0.170118 0.668876 2.379024 74 67 57
-0.302746 0.800669 2.796199 173 177 177
-0.324475 0.822611 2.817993 192 200 207
-0.207439 0.706538 2.375754 78 88 70
-0.223219 0.723467 2.379286 78 89 74
-0.286438 0.790151 2.687082 147 146 143
-0.329920 0.837240 2.970044 150 154 156
-0.338761 0.845705 2.952701 151 155 156
-0.297292 0.806598 2.769505 156 161 164
-0.348971 0.858533 2.888455 192 201 208
-0.318397 0.821738 2.500985 160 164 166
-0.318344 0.821696 2.501202 140 144 145
-0.279227 0.793975 2.704848 153 160 155
-0.282092 0.796208 2.704826 153 160 155
-0.326030 0.842812 2.958330 185 188 192
-0.336878 0.852986 2.942891 171 177 180
-0.316746 0.831578 2.809036 176 183 189
-0.011776 0.542970 2.381272 100 76 68
-0.342184 0.859803 2.938911 157 162 161
-0.004130 0.536454 2.382790 93 71 60
0.020222 0.515885 2.383215 72 52 47
-0.309843 0.823982 2.489128 168 174 181
-0.284417 0.808400 2.708688 102 94 93
-0.120861 0.651508 2.380661 81 64 51
-0.279237 0.808093 2.677721 90 81 77
-0.317345 0.852386 2.984246 152 156 159
-0.307494 0.840820 2.779771 180 185 196
-0.331135 0.868511 2.921728 171 172 176
-0.316200 0.856170 2.932624 164 165 161
-0.306547 0.847248 2.946357 138 138 134
-0.299439 0.838531 2.629642 110 106 105
-0.308948 0.852575 2.868033 215 224 229
-0.067009 0.613780 2.380142 97 74 61
-0.068603 0.614773 2.379070 97 74 61
-0.319165 0.869139 2.923819 148 149 152
-0.274486 0.821843 2.702460 178 182 184
-0.046590 0.596219 2.380726 133 106 90
-0.292605 0.846138 3.025083 188 196 201
-0.294556 0.850073 3.018956 132 131 132
-0.302933 0.856408 2.852363 130 134 141
-0.301972 0.855636 2.852346 130 134 141
-0.299444 0.856688 2.974575 142 142 144
-0.301884 0.856167 2.783941 207 211 220
-0.302155 0.857583 2.851525 160 162 166
-0.300825 0.856090 2.851456 139 142 147
-0.300152 0.851230 2.484059 180 185 188
-0.286735 0.842198 2.656690 112 106 102
-0.287419 0.842995 2.656536 112 103 100
-0.295387 0.858486 2.881544 178 187 196
-0.106073 0.664738 2.382886 96 91 77
-0.286710 0.856766 3.020888 124 114 113
0.000647 0.562067 2.382307 86 64 53
-0.293636 0.861413 2.868707 168 173 179
-0.016954 0.580044 2.383226 87 67 60
-0.302929 0.866871 2.455004 169 172 175
0.014069 0.551281 2.380334 75 56 50
0.031583 0.534484 2.383056 90 70 61
-0.285258 0.856522 2.769703 193 200 206
-0.263647 0.835836 2.378055 98 94 92
-0.283726 0.867938 2.859169 171 179 186
-0.290109 0.876891 2.949957 162 169 177
-0.289937 0.876985 2.950172 174 179 178
-0.261644 0.845949 2.754402 201 207 212
-0.272305 0.857719 2.794874 168 173 175
-0.285560 0.875156 2.964547 170 174 178
-0.271097 0.864988 2.995698 117 119 119
-0.283889 0.882635 3.036560 183 188 192
-0.275459 0.874252 2.792058 144 148 147
-0.062108 0.650069 2.379126 132 112 95
-0.276833 0.880320 2.963744 107 102 101
-0.282153 0.885267 2.881402 146 151 155
-0.230151 0.826644 2.372594 87 71 64
-0.090474 0.682890 2.377211 87 67 55
-0.275994 0.884491 3.028407 207 212 219
-0.256862 0.862115 2.760963 201 207 213
-0.276813 0.885274 2.959854 110 107 107
-0.253224 0.860583 2.685542 93 85 83
-0.264431 0.876830 2.979160 172 176 181
-0.272921 0.884667 2.784570 145 151 153
-0.245467 0.854907 2.694101 144 144 140
-0.244527 0.854908 2.753331 188 195 200
-0.276717 0.891071 2.951168 135 136 134
-0.262377 0.879228 2.991801 137 137 141
-0.262707 0.879765 2.991946 106 107 108
-0.269541 0.887198 3.025388 142 148 153
-8.172546 9.362556 0.685844 171 163 150
-0.267058 0.885259 2.870658 142 148 148
-0.100735 0.704931 2.376557 99 75 64
-0.261459 0.883930 3.001709 134 138 142
-0.270988 0.895207 2.863038 140 144 145
-0.272434 0.897111 2.944585 122 122 120
-0.279564 0.906611 2.938112 106 104 102
-0.242964 0.865348 2.688969 94 88 87
-0.271465 0.899438 2.818092 163 159 155
-0.236420 0.859957 2.370861 133 107 90
-0.275175 0.903457 2.802364 131 127 130
-0.243499 0.869135 2.703000 132 129 126
-0.244219 0.870646 2.660083 160 164 169
-11.282478 12.976874 9.618232 73 71 70
-0.262827 0.899406 3.014572 149 154 158
-0.280877 0.919499 2.892965 161 166 174
-0.284095 0.924398 2.826331 142 142 144
-7.939663 9.399491 1.087334 138 129 119
0.034227 0.572976 2.381690 97 77 70
-0.283348 0.927497 2.821667 135 130 126
-0.052529 0.672162 2.378987 99 73 60
-0.257849 0.901808 2.790327 132 136 133
-8.373862 9.984366 0.719272 76 72 69
-8.338032 9.943770 0.724816 113 109 99
-0.266727 0.912820 2.954133 102 103 100
-0.231436 0.876064 2.658563 135 141 147
0.016856 0.597497 2.381509 93 70 61
-0.613031 1.307076 2.365117 80 72 69
-0.092695 0.721056 2.377581 82 58 51
0.018074 0.597246 2.380678 92 69 63
-0.217589 0.863587 2.371241 157 133 112
-10.711995 12.764437 8.111769 160 165 171
-0.285791 0.943456 2.852339 139 141 145
-0.228160 0.880016 2.662328 147 153 158
-8.250493 10.007393 0.556946 85 85 84
-8.125251 9.871383 0.692020 158 148 137
-0.242500 0.897277 2.368658 64 53 50
-0.280978 0.943224 2.884754 144 147 153
-0.251780 0.909380 2.804508 121 104 90
-0.278785 0.940272 2.834680 178 174 175
-0.256548 0.919994 2.805919 124 115 107
-0.244683 0.908197 2.815021 197 203 210
-0.281222 0.950663 2.871901 152 150 152
-0.119651 0.767649 2.374413 146 117 99
-0.218519 0.881196 2.723129 168 173 178
-0.000350 0.630620 2.379663 82 59 50
-0.276836 0.949895 2.907144 111 110 115
-7.256923 9.066586 0.654210 87 88 91
-0.279600 0.954454 2.856516 115 113 108
-0.023847 0.662665 2.378394 111 85 74
-0.212873 0.880932 2.727461 143 150 156
-0.236464 0.914192 2.818193 167 170 171
-0.256225 0.942744 2.840550 162 162 169
0.040204 0.596056 2.382775 87 64 58
-0.087608 0.747286 2.377207 104 77 65
-9.545566 12.011587 0.894404 76 76 76
-9.534159 12.043118 0.655455 158 149 137
-0.178091 0.858689 2.375408 154 128 111
-0.098756 0.764059 2.377578 114 86 72
-0.250550 0.944672 2.837796 175 179 188
-10.334440 13.026472 7.568924 129 110 105
-9.691505 12.248859 7.103093 142 144 148
-0.254464 0.952166 2.912374 118 116 113
-7.551757 9.821960 0.729877 122 120 114
-9.270587 11.947299 0.881200 147 146 141
-9.209147 11.876235 0.896348 147 146 141
-0.251859 0.958016 2.895844 114 109 109
-0.247244 0.952941 2.900876 144 141 139
-0.252062 0.959623 2.872302 160 161 163
-9.118006 11.845782 1.062849 90 89 84
-0.460781 1.225047 2.364098 82 72 70
-8.713252 11.336513 6.565130 65 57 53
-9.108573 11.928804 0.779304 85 81 77
-0.243493 0.956232 2.884958 144 147 150
-0.050762 0.727638 2.376446 140 111 96
-0.234033 0.951183 2.824265 97 96 95
-0.227594 0.944606 2.914285 191 199 208
-8.941780 11.868332 1.331969 102 97 94
-8.839272 11.741870 1.605160 132 135 139
-0.265613 1.003094 2.370873 39 41 47
-0.218246 0.939755 2.906101 187 195 198
-8.701075 11.643629 1.247370 106 103 95
-0.038388 0.721621 2.377113 126 98 84
-0.223908 0.948169 2.894700 99 94 87
-0.219826 0.946334 2.837495 168 175 181
-8.747581 11.795958 1.349407 114 113 106
-0.605415 1.448597 2.357751 98 89 84
-0.218587 0.950901 2.883935 129 131 132
-0.221326 0.954110 2.884530 132 133 132
-8.483586 11.680658 1.440659 151 149 144
-0.216461 0.958887 2.888757 96 96 97
-8.441883 11.709265 1.094237 112 107 99
-8.350450 11.597206 1.358378 133 129 121
-0.084780 0.804042 2.375183 96 69 61
-7.369310 10.289900 5.460117 151 156 162
-8.404822 11.791073 1.030038 125 120 113
-8.197712 11.545258 1.352125 148 143 133
-9.100293 12.648760 6.360887 165 170 174
-8.680790 12.104596 6.858117 181 186 189
-0.045413 0.764270 2.374217 100 80 69
-0.061949 0.787399 2.374180 130 103 88
-7.698138 11.169887 1.804430 179 181 178
-8.276787 11.982172 1.294077 82 82 82
-0.247278 1.055577 2.371134 72 58 57
-0.111851 0.871565 2.374053 93 74 68
-0.050585 0.788389 2.374164 104 81 73
-7.815106 11.475571 1.652138 157 159 156
-7.744435 11.384014 1.879000 172 174 172
-0.150295 0.934248 2.371873 74 60 59
-7.926540 12.040513 0.549040 79 71 66
-8.415411 12.776546 0.803269 16 18 26
-7.770974 11.853389 0.946425 13 16 22
-7.517877 11.451152 6.805946 185 190 193
-0.324868 1.227731 2.365875 58 53 50
-7.412092 11.446879 4.697506 180 187 188
-7.694698 11.849446 6.860164 175 180 183
-7.148998 11.159634 3.876788 22 22 21
-6.698533 10.732157 2.512585 67 71 74
-6.494045 10.485567 1.052552 44 40 40
-5.979792 9.806896 1.027045 107 95 86
-6.982683 11.213909 4.016461 95 70 69
-7.258921 11.635667 3.605096 24 21 25
-0.186581 1.056549 2.368198 64 57 56
-7.266945 11.725506 3.069683 157 145 137
-6.689426 10.723753 7.053084 183 188 192
-6.959492 11.340116 3.810854 110 88 97
-6.674955 11.052119 0.701118 53 48 46
-6.726130 11.128268 0.687701 53 48 46
-6.962171 11.410287 2.885922 72 44 42
-6.729876 11.061327 3.999248 99 75 73
-6.437353 10.755491 0.892048 43 38 36
-0.139620 1.006784 2.377601 68 57 54
-7.072215 11.941468 0.922767 66 69 62
-0.237786 1.175584 2.369812 64 54 55
-7.204162 12.180144 3.852603 47 31 35
-7.105327 12.104159 2.450891 105 99 96
-6.797245 11.834143 1.260984 153 142 144
-7.073630 12.314818 0.697990 149 134 135
-6.363055 11.083381 5.542772 154 135 136
-6.755461 12.085853 0.497479 50 41 40
-5.968598 10.986845 0.513122 96 89 84
-7.002439 12.765104 0.879575 44 40 39
-6.091080 11.216951 1.100096 33 30 32
-6.723738 12.245917 3.475535 110 107 103
-5.904290 11.063983 0.644005 61 51 50
-0.132552 1.088359 2.374099 67 59 58
-6.897142 12.684288 3.897785 123 121 118
-5.487751 10.577801 0.552652 130 121 111
-5.901992 11.317735 1.109874 100 99 94
-5.803248 11.247398 0.631453 113 106 96
-5.522575 10.791744 0.600590 84 71 64
-6.047328 11.511970 4.356932 123 117 111
-5.308806 10.322663 3.052070 95 100 104
-5.551544 10.801335 2.406806 106 110 113
-5.016192 9.789408 3.263224 91 95 98
-6.600036 12.403052 6.262172 113 117 118
-5.560625 10.870010 2.754442 100 104 107
-6.047233 11.558025 5.825430 119 123 124
-5.714152 11.149767 3.411045 102 106 109
-5.470711 10.826654 2.273203 122 120 116
-5.769932 11.082520 6.290484 140 146 147
-5.653581 11.366269 0.768178 37 29 27
-5.283584 10.641562 1.357866 56 47 44
-5.228679 10.427430 2.894084 117 118 119
-5.400432 10.929642 0.842896 37 29 27
-5.633262 11.349706 1.263129 56 47 44
-5.222593 10.662592 0.661020 114 102 87
-5.607563 10.990875 5.734779 137 141 142
-5.775544 11.394616 5.104659 113 112 110
-5.413821 10.852757 4.245278 98 103 108
-5.235735 10.546921 3.978639 97 101 106
-5.513084 10.959267 6.057970 143 147 148
-5.640280 11.192077 6.238178 152 156 157
-5.083360 10.551280 1.531951 146 148 145
-5.259192 10.963422 0.620694 81 69 59
-4.477850 9.443846 1.400835 101 98 94
-5.921332 11.873433 5.339442 124 128 131
-5.002024 10.413806 2.241550 128 128 128
-5.173388 10.883581 1.343639 117 113 110
-5.180298 10.640971 4.385981 75 56 58
-5.914249 12.088134 4.327572 75 70 74
-6.010028 12.329658 4.722843 116 103 102
-4.675821 10.086723 1.950864 156 156 152
-5.057598 10.623164 4.275392 131 127 113
-4.349939 9.544596 1.742658 162 162 162
-4.935102 10.798883 1.094767 70 66 64
-4.642353 10.217504 1.122953 74 70 67
-4.534539 9.983370 1.894273 121 121 120
-2.482933 -2.777186 0.718648 171 171 171
-3.686152 -3.720381 0.857362 186 186 186
-3.708711 -3.674634 0.844457 186 186 186
-1.789127 -2.067401 0.654885 192 188 186
0.175894 0.437446 2.377795 108 89 85
0.292868 0.552695 2.405416 106 90 77
-2.564805 -2.702971 0.696337 183 183 183
-2.694165 -2.797729 0.725006 192 190 191
0.321152 0.577568 2.386381 106 88 88
-3.695037 -3.517713 0.843524 180 180 180
-1.990060 -2.104527 0.679102 170 170 168
-3.969277 -3.686126 0.813378 185 185 185
-2.193969 -2.238471 0.648475 180 178 179
-2.161540 -2.195269 0.688748 171 171 173
-4.147159 -3.806371 0.839088 178 178 178
0.019533 0.360788 2.390319 97 81 81
-2.735699 -2.625356 0.666644 196 194 195
-4.264656 -3.800722 0.827498 186 186 186
-0.169225 0.238857 2.401802 101 86 83
-0.369041 0.078198 2.404175 118 101 99
-0.392960 0.060914 2.406505 75 78 90
-5.662151 -4.813177 0.960581 171 172 174
-5.166439 -4.433153 0.848218 159 160 165
0.433312 0.769942 2.379380 92 77 79
-5.134781 -4.172355 0.851528 182 181 186
-3.745677 -3.146598 0.673904 184 184 184
-0.161144 0.312401 2.388342 106 87 83
-3.744163 -3.054057 0.761308 184 184 184
-4.065574 -3.298613 0.757553 189 188 189
-4.621299 -3.549231 0.880363 184 184 184
-3.906858 -3.068039 0.673063 196 196 196
-3.884376 -2.995697 0.758798 184 184 184
-2.603605 -2.066657 0.643499 176 176 176
-4.548287 -3.476969 0.802156 177 177 179
-4.508269 -3.449894 0.714430 195 195 195
-5.410225 -4.053885 0.866773 158 159 164
-5.458431 -4.099735 0.845976 158 159 164
-2.590528 -2.013055 0.644714 189 187 188
-0.306769 0.280515 2.387894 100 82 80
-4.267410 -3.204660 0.719794 190 190 188
0.130666 0.609687 2.383226 99 78 74
-4.025298 -3.010755 0.728177 196 196 194
-5.291745 -3.883492 0.841768 178 179 181
-4.684569 -3.402829 0.759636 173 173 175
-0.517974 0.165044 2.395799 109 95 91
-0.369712 0.283219 2.393263 117 99 93
0.144828 0.654063 2.376487 83 65 63
-0.204631 0.416524 2.387335 134 111 103
-0.428320 0.257070 2.388741 105 90 85
0.065521 0.611317 2.381703 117 95 87
-0.052033 0.530028 2.383605 135 108 94
-3.560425 -2.413257 0.691225 179 179 179
-4.505460 -3.010418 0.758974 188 188 188
-0.136000 0.500822 2.388425 146 118 102
0.062726 0.661918 2.377404 115 91 80
-0.015446 0.610490 2.380408 140 113 102
-5.563420 -3.537672 0.752397 178 178 180
0.337142 0.855958 2.378504 89 73 71
-4.397190 -2.711182 0.735366 193 193 193
-4.676937 -2.801483 0.888161 178 179 181
-0.228897 0.501591 2.384526 160 135 118
-0.193487 0.536410 2.383322 119 110 100
-0.110060 0.589002 2.381856 134 140 121
0.029978 0.686462 2.381865 133 110 99
-0.053944 0.636443 2.379558 159 131 114
-4.857919 -2.866738 0.707989 177 178 180
0.000492 0.678559 2.377594 121 97 90
0.000428 0.678576 2.377595 121 97 90
0.018420 0.692727 2.376860 126 102 94
-4.557523 -2.586642 0.725677 188 188 188
-4.597649 -2.614779 0.702511 179 179 179
-0.063215 0.656290 2.384127 127 109 95
0.379835 0.939088 2.371271 92 71 72
-4.864512 -2.716816 0.678834 182 182 183
-4.294360 -2.318454 0.725114 185 185 185
0.338724 0.931391 2.372457 81 62 57
0.379083 0.960500 2.375578 83 63 64
-5.020094 -2.701197 0.721965 173 174 176
-5.044885 -2.666540 0.586267 181 181 181
-4.797017 -2.481061 0.724453 179 179 179
-0.195439 0.633215 2.379214 103 93 84
-0.241360 0.610357 2.376787 100 99 92
-4.180029 -2.027611 0.664971 159 157 158
-5.002740 -2.455127 0.743472 195 193 194
-3.243133 -1.471125 0.564139 197 193 190
0.321982 0.972001 2.370230 44 45 52
0.124314 0.864325 2.373441 93 69 65
-4.474632 -1.998886 0.671300 200 199 197
-0.137116 0.744442 2.376140 121 92 79
-6.346131 -2.973488 0.750987 192 191 189
-0.061750 0.799619 2.374332 188 158 138
-6.328914 -2.903745 0.673944 183 183 183
0.068509 0.878208 2.374408 117 94 86
0.068738 0.877758 2.371671 98 77 72
-6.578726 -2.917702 0.735539 181 181 179
0.067320 0.892300 2.372412 105 82 76
-4.800685 -1.958552 0.646669 197 196 194
-0.202214 0.751085 2.375319 102 79 72
0.329901 1.038859 2.374039 77 59 59
-0.095612 0.810478 2.372481 182 150 128
-5.874361 -2.485486 0.698514 193 193 191
-3.951611 -1.423641 0.615730 195 193 194
-3.939442 -1.417714 0.624863 195 193 194
-0.167652 0.793555 2.375615 105 79 72
-3.922144 -1.388414 0.555109 190 187 188
-0.023199 0.884752 2.370230 98 77 74
-4.945821 -1.815936 0.646522 191 191 189
-5.010262 -1.825995 0.660585 199 198 196
0.072832 0.948896 2.370987 102 81 78
-0.256195 0.790823 2.370684 84 68 67
-5.224297 -1.888235 0.590511 203 202 200
-0.224108 0.816326 2.372974 92 74 71
-7.501028 -2.787003 0.979360 180 180 182
-0.061951 0.929641 2.367957 87 78 80
-5.896925 -2.008403 0.652144 183 183 183
0.044386 0.985326 2.367674 54 45 48
-5.788005 -1.922875 0.612125 199 197 198
-0.276486 0.888603 2.900252 215 220 226
-0.007096 0.971438 2.370005 93 77 75
-5.535489 -1.742191 0.688077 196 195 195
-0.194772 0.887217 2.376905 102 79 74
-0.197085 0.884940 2.369642 133 109 94
-5.237508 -1.586551 0.784242 188 187 185
-0.052756 0.971320 2.369460 97 78 76
-0.054161 0.969862 2.367025 99 74 71
-0.254020 0.890243 2.395977 216 226 235
-8.019639 -2.644660 0.880807 178 179 183
-0.046779 0.993742 2.366803 83 68 64
-5.264619 -1.393637 0.600047 191 190 188
-8.212679 -2.667335 0.886540 175 176 178
-4.898050 -1.220314 0.633786 182 182 182
-0.185409 0.942802 2.368010 102 85 81
0.082935 1.064332 2.364194 73 57 57
0.081784 1.064264 2.362244 76 58 58
-0.217973 0.961199 2.868644 203 209 216
-5.161999 -1.292531 0.573609 192 190 191
-5.442657 -1.327401 1.573426 196 195 193
-4.944986 -1.157178 0.571381 180 180 180
-5.026590 -1.170601 0.637511 193 193 193
0.264080 1.161802 2.367048 77 57 58
-0.320208 0.929366 2.679355 171 172 175
-8.207746 -2.432767 0.932525 169 168 172
0.180474 1.139578 2.369481 75 61 60
-6.911535 -1.826948 0.848417 191 190 188
-9.110568 -2.691697 1.053777 171 171 173
-5.160465 -1.063897 0.700236 178 178 179
-5.034835 -0.966100 0.586814 180 180 180
-5.015256 -0.896971 0.619198 171 169 170
-6.394400 -1.404686 0.745981 191 190 189
-0.453071 0.938799 2.952687 238 243 242
-0.274846 1.007702 2.365848 71 63 65
-8.497406 -2.167499 0.937686 151 149 150
-7.015549 -1.601660 0.767820 192 191 189
-6.547420 -1.417405 0.737667 184 182 183
-6.443461 -1.360330 0.730264 195 194 192
0.090757 1.156974 2.361091 72 57 57
-5.633616 -0.960343 0.573381 182 180 181
-9.081015 -2.146551 0.943635 179 178 180
-6.629509 -1.227662 0.719990 189 188 186
-7.546112 -1.553341 0.776185 195 194 192
-1.071965 0.768576 2.357328 103 91 88
-7.470474 -1.489358 0.725278 187 186 184
-4.179952 -0.309684 0.503872 202 198 197
0.091625 1.198623 2.361885 72 60 58
-6.299707 -1.010231 0.677338 179 177 178
-4.239070 -0.276015 0.618194 198 197 195
-5.752850 -0.792366 0.716324 188 187 185
-4.610698 -0.354115 0.587191 196 195 193
-4.496205 -0.300661 0.614149 186 184 185
-9.392807 -1.964502 0.834386 188 185 185
-0.077134 1.164790 2.361557 76 62 61
-5.432225 -0.581445 0.613873 192 191 191
-5.025929 -0.441645 0.614398 183 182 182
-4.779259 -0.355162 0.603718 188 188 188
-0.377352 1.070641 2.358900 65 61 67
-4.865223 -0.369858 0.533242 200 199 199
-9.013099 -1.770812 0.913186 192 191 188
-5.433369 -0.560075 0.568545 195 193 194
-3.795212 0.039051 0.541287 179 175 172
-7.705341 -1.234639 0.792798 197 196 192
0.104624 1.263902 2.355102 70 56 55
-0.416579 1.099112 2.353197 66 60 59
-5.348017 -0.372795 0.693001 182 182 183
-4.385388 -0.053260 0.523362 189 185 184
-0.465065 1.093185 2.359327 87 76 72
-5.280220 -0.298840 0.568063 194 192 193
-6.348195 -0.623873 0.666837 161 159 161
-5.508312 -0.358412 0.612387 174 174 174
-3.960800 0.136796 0.459868 192 188 186
-4.147120 0.091759 0.494215 182 180 178
-6.098024 -0.510933 0.740245 187 185 183
-9.944227 -1.693224 0.911958 126 129 131
-4.213876 0.081362 0.572360 185 180 177
-0.091354 1.232751 2.356613 76 60 60
-6.356816 -0.512005 0.654760 181 179 179
-0.388086 1.155653 2.362177 86 71 68
-5.282304 -0.118287 0.568075 183 181 182
-0.293755 1.192586 2.360523 64 54 54
-6.667031 -0.515181 0.600818 157 158 162
-4.384972 0.161780 0.507964 191 187 186
-0.492025 1.138736 2.355908 91 76 76
-8.380781 -1.003227 0.766897 188 187 185
-4.625311 0.133196 0.564549 180 179 178
-5.357236 -0.063589 0.570240 190 190 190
-6.666870 -0.374647 0.641606 199 198 196
-6.676350 -0.376791 0.636475 199 198 196
-0.182395 1.253007 2.354151 81 65 65
-4.232580 0.314454 0.545617 195 191 190
-3.838424 0.434433 0.491837 162 160 156
-5.014831 0.103094 0.588764 176 176 176
-6.282677 -0.191748 0.576001 195 193 194
-0.694230 1.137708 2.353122 104 89 84
-5.486592 0.115189 0.525115 173 173 173
-0.972016 1.095147 2.337713 139 110 93
-5.528550 0.143733 0.564450 178 178 180
-0.059168 1.344172 2.348830 94 74 73
-0.060066 1.344564 2.346015 94 74 73
-0.187426 1.314554 2.353400 86 68 66
-3.963267 0.643752 0.492312 160 159 157
-0.477684 1.305943 2.353902 94 76 74
-0.516806 1.318825 2.348835 102 87 84
-5.969651 0.528342 0.559325 175 175 175
-6.092934 0.514528 0.585219 180 180 181
-0.330674 1.382225 2.342334 86 69 69
-3.847754 1.025533 0.443401 160 159 157
-6.096622 0.575595 0.612698 168 168 170
-5.201703 0.780527 0.562470 173 171 172
-0.170708 1.432331 2.341064 84 66 66
-0.625613 1.350508 2.345463 85 71 70
-0.626673 1.350711 2.344442 85 71 70
-0.534655 1.369888 2.344379 95 80 77
0.003881 1.472010 2.343806 83 64 64
-6.775127 0.653146 0.581682 181 181 181
-0.065532 1.487188 2.345470 104 77 56
-0.300470 1.455718 2.342172 97 82 79
-0.765059 1.383644 2.336582 105 90 87
-4.497615 1.169436 0.444665 164 162 163
-6.011514 0.938825 0.556912 168 168 168
-0.355455 1.463103 2.346428 98 83 79
-0.167385 1.513666 2.341384 81 63 63
-4.502319 1.306414 0.497942 172 170 171
-0.629448 1.459833 2.334583 110 95 92
-3.666980 1.481327 0.448096 164 161 160
-0.291251 1.514219 2.338158 82 66 66
-3.575234 1.508108 0.428450 196 192 191
-3.807879 1.565002 0.434292 182 181 179
-10.086650 0.741979 0.780298 207 204 201
