ply
format ascii 1.0
element vertex 1168
property float x
property float y
property float z
property uchar red
property uchar green
property uchar blue
element face 0
property list uchar int vertex_index
end_header
-348.170476 237.680952 1349.000000 0 0 0
-348.170476 240.250476 1349.000000 0 0 0
-348.170476 242.820000 1349.000000 0 0 0
-349.460952 246.299048 1354.000000 0 0 0
-342.750476 289.630476 1328.000000 0 0 0
-341.201905 290.840000 1322.000000 0 0 0
-339.911429 292.248571 1317.000000 0 0 0
-339.911429 294.757143 1317.000000 0 0 0
-339.911429 297.265714 1317.000000 0 0 0
-339.911429 299.774286 1317.000000 0 0 0
-338.620952 301.135238 1312.000000 0 0 0
-338.620952 303.634286 1312.000000 0 0 0
-338.620952 306.133333 1312.000000 0 0 0
-337.330476 307.456190 1307.000000 0 0 0
-337.330476 309.945714 1307.000000 0 0 0
-336.040000 311.240000 1302.000000 0 0 0
-336.040000 313.720000 1302.000000 0 0 0
-337.330476 317.414286 1307.000000 0 0 0
-337.330476 319.903810 1307.000000 0 0 0
-337.330476 322.393333 1307.000000 0 0 0
-337.330476 324.882857 1307.000000 0 0 0
-337.330476 327.372381 1307.000000 0 0 0
-337.330476 329.861905 1307.000000 0 0 0
-336.040000 331.080000 1302.000000 0 0 0
-336.040000 333.560000 1302.000000 0 0 0
-332.426667 332.426667 1288.000000 0 0 0
-332.426667 334.880000 1288.000000 0 0 0
-332.426667 337.333333 1288.000000 0 0 0
-332.426667 339.786667 1288.000000 0 0 0
-332.426667 342.240000 1288.000000 0 0 0
-332.426667 344.693333 1288.000000 0 0 0
-332.426667 347.146667 1288.000000 0 0 0
-333.459048 350.685714 1292.000000 0 0 0
-334.749524 354.513333 1297.000000 0 0 0
-334.749524 356.983810 1297.000000 0 0 0
-336.040000 360.840000 1302.000000 0 0 0
-332.426667 359.413333 1288.000000 0 0 0
-331.136190 360.461905 1283.000000 0 0 0
-329.845714 361.491429 1278.000000 0 0 0
-328.555238 362.501905 1273.000000 0 0 0
-328.555238 364.926667 1273.000000 0 0 0
-328.555238 367.351429 1273.000000 0 0 0
-328.555238 369.776190 1273.000000 0 0 0
-328.555238 372.200952 1273.000000 0 0 0
-328.555238 374.625714 1273.000000 0 0 0
-328.555238 377.050476 1273.000000 0 0 0
-328.555238 379.475238 1273.000000 0 0 0
-328.555238 381.900000 1273.000000 0 0 0
-327.264762 382.815238 1268.000000 0 0 0
-327.264762 385.230476 1268.000000 0 0 0
-326.232381 386.422857 1264.000000 0 0 0
-326.232381 388.830476 1264.000000 0 0 0
-326.232381 391.238095 1264.000000 0 0 0
-324.941905 392.088571 1259.000000 0 0 0
-323.909524 393.233333 1255.000000 0 0 0
-323.909524 395.623810 1255.000000 0 0 0
-322.619048 396.428571 1250.000000 0 0 0
-322.619048 398.809524 1250.000000 0 0 0
-322.619048 401.190476 1250.000000 0 0 0
-321.328571 401.957143 1245.000000 0 0 0
-321.328571 404.328571 1245.000000 0 0 0
-321.328571 406.700000 1245.000000 0 0 0
-322.619048 410.714286 1250.000000 0 0 0
-322.619048 413.095238 1250.000000 0 0 0
-322.619048 415.476190 1250.000000 0 0 0
-322.619048 417.857143 1250.000000 0 0 0
-322.619048 420.238095 1250.000000 0 0 0
-323.909524 424.309524 1255.000000 0 0 0
-322.619048 425.000000 1250.000000 0 0 0
-322.619048 427.380952 1250.000000 0 0 0
-322.619048 429.761905 1250.000000 0 0 0
-321.328571 430.414286 1245.000000 0 0 0
-321.328571 432.785714 1245.000000 0 0 0
-320.296190 433.759048 1241.000000 0 0 0
-320.296190 436.122857 1241.000000 0 0 0
-321.328571 439.900000 1245.000000 0 0 0
-321.328571 442.271429 1245.000000 0 0 0
-321.328571 444.642857 1245.000000 0 0 0
-321.328571 447.014286 1245.000000 0 0 0
-321.328571 449.385714 1245.000000 0 0 0
-320.296190 450.305714 1241.000000 0 0 0
-320.296190 452.669524 1241.000000 0 0 0
-317.973333 451.733333 1232.000000 0 0 0
-317.973333 454.080000 1232.000000 0 0 0
-319.005714 457.908571 1236.000000 0 0 0
-319.005714 460.262857 1236.000000 0 0 0
-317.973333 461.120000 1232.000000 0 0 0
-317.973333 463.466667 1232.000000 0 0 0
-316.682857 463.922857 1227.000000 255 255 255
-316.682857 466.260000 1227.000000 255 255 255
-317.973333 470.506667 1232.000000 255 255 255
-391.715238 -103.389524 1529.000000 0 0 0
-391.715238 -100.477143 1529.000000 0 0 0
-391.715238 -97.564762 1529.000000 0 0 0
-390.178095 -94.280952 1523.000000 0 0 0
-390.178095 -91.380000 1523.000000 0 0 0
-390.178095 -88.479048 1523.000000 0 0 0
-390.178095 -85.578095 1523.000000 0 0 0
-390.178095 -82.677143 1523.000000 0 0 0
-390.178095 -79.776190 1523.000000 0 0 0
-388.384762 -76.521905 1516.000000 0 0 0
-388.384762 -73.634286 1516.000000 0 0 0
-388.384762 -70.746667 1516.000000 0 0 0
-388.384762 -67.859048 1516.000000 0 0 0
-388.384762 -64.971429 1516.000000 0 0 0
-388.384762 -62.083810 1516.000000 0 0 0
-386.591429 -58.922857 1509.000000 0 0 0
-386.591429 -56.048571 1509.000000 0 0 0
-386.591429 -53.174286 1509.000000 0 0 0
-386.591429 -50.300000 1509.000000 0 0 0
-385.054286 -47.237143 1503.000000 0 0 0
-385.054286 -44.374286 1503.000000 0 0 0
-385.054286 -41.511429 1503.000000 0 0 0
-385.054286 -38.648571 1503.000000 0 0 0
-383.260952 -35.619048 1496.000000 0 0 0
-381.467619 -32.616190 1489.000000 0 0 0
-381.467619 -29.780000 1489.000000 0 0 0
-381.467619 -26.943810 1489.000000 0 0 0
-381.467619 -24.107619 1489.000000 0 0 0
-381.467619 -21.271429 1489.000000 0 0 0
-381.467619 -18.435238 1489.000000 0 0 0
-379.930476 -15.536190 1483.000000 0 0 0
-379.930476 -12.711429 1483.000000 0 0 0
-379.930476 -9.886667 1483.000000 0 0 0
-378.393333 -7.033333 1477.000000 0 0 0
-378.393333 -4.220000 1477.000000 0 0 0
-376.600000 -1.400000 1470.000000 0 0 0
-376.600000 1.400000 1470.000000 0 0 0
-376.600000 4.200000 1470.000000 0 0 0
-376.600000 7.000000 1470.000000 0 0 0
-376.600000 9.800000 1470.000000 0 0 0
-376.600000 12.600000 1470.000000 0 0 0
-376.600000 15.400000 1470.000000 0 0 0
-375.062857 18.125714 1464.000000 0 0 0
-375.062857 20.914286 1464.000000 0 0 0
-375.062857 23.702857 1464.000000 0 0 0
-375.062857 26.491429 1464.000000 0 0 0
-375.062857 29.280000 1464.000000 0 0 0
-375.062857 32.068571 1464.000000 0 0 0
-375.062857 34.857143 1464.000000 0 0 0
-375.062857 37.645714 1464.000000 0 0 0
-375.062857 40.434286 1464.000000 0 0 0
-375.062857 43.222857 1464.000000 0 0 0
-373.525714 45.822857 1458.000000 0 0 0
-373.525714 48.600000 1458.000000 0 0 0
-373.525714 51.377143 1458.000000 0 0 0
-373.525714 54.154286 1458.000000 0 0 0
-373.525714 56.931429 1458.000000 0 0 0
-371.988571 59.462857 1452.000000 0 0 0
-371.988571 62.228571 1452.000000 0 0 0
-371.988571 64.994286 1452.000000 0 0 0
-367.120952 66.873333 1433.000000 0 0 0
-367.120952 69.602857 1433.000000 0 0 0
-364.046667 71.726667 1421.000000 0 0 0
-364.046667 74.433333 1421.000000 0 0 0
-364.046667 77.140000 1421.000000 0 0 0
-364.046667 79.846667 1421.000000 0 0 0
-364.046667 90.673333 1421.000000 0 0 0
-364.046667 96.086667 1421.000000 0 0 0
-364.046667 98.793333 1421.000000 0 0 0
-364.046667 101.500000 1421.000000 0 0 0
-364.046667 104.206667 1421.000000 0 0 0
-362.509524 106.461905 1415.000000 0 0 0
-362.509524 109.157143 1415.000000 0 0 0
-362.509524 111.852381 1415.000000 0 0 0
-362.509524 114.547619 1415.000000 0 0 0
-362.509524 117.242857 1415.000000 0 0 0
-361.228571 119.514286 1410.000000 0 0 0
-361.228571 122.200000 1410.000000 0 0 0
-361.228571 124.885714 1410.000000 0 0 0
-359.691429 127.028571 1404.000000 0 0 0
-358.154286 129.148571 1398.000000 0 0 0
-358.154286 131.811429 1398.000000 0 0 0
-358.154286 134.474286 1398.000000 0 0 0
-358.154286 137.137143 1398.000000 0 0 0
-356.617143 139.200000 1392.000000 0 0 0
-356.617143 141.851429 1392.000000 0 0 0
-356.617143 144.502857 1392.000000 0 0 0
-356.617143 147.154286 1392.000000 0 0 0
-356.617143 149.805714 1392.000000 0 0 0
-352.518095 192.640000 1376.000000 0 0 0
-350.980952 194.409524 1370.000000 0 0 0
-350.980952 197.019048 1370.000000 0 0 0
-350.980952 199.628571 1370.000000 0 0 0
-350.980952 202.238095 1370.000000 0 0 0
-350.980952 204.847619 1370.000000 0 0 0
-349.700000 206.700000 1365.000000 0 0 0
-349.700000 209.300000 1365.000000 0 0 0
-346.881905 210.192381 1354.000000 0 0 0
-346.881905 212.771429 1354.000000 0 0 0
-346.881905 215.350476 1354.000000 0 0 0
-345.600952 217.124762 1349.000000 0 0 0
-345.600952 219.694286 1349.000000 0 0 0
-345.600952 222.263810 1349.000000 0 0 0
-344.063810 223.833333 1343.000000 0 0 0
-344.063810 226.391429 1343.000000 0 0 0
-345.600952 229.972381 1349.000000 0 0 0
-345.600952 232.541905 1349.000000 0 0 0
-345.600952 235.111429 1349.000000 0 0 0
-345.600952 237.680952 1349.000000 0 0 0
-345.600952 240.250476 1349.000000 0 0 0
-345.600952 242.820000 1349.000000 0 0 0
-346.881905 246.299048 1354.000000 0 0 0
-338.683810 288.321905 1322.000000 0 0 0
-337.402857 289.740000 1317.000000 0 0 0
-337.402857 292.248571 1317.000000 0 0 0
-337.402857 294.757143 1317.000000 0 0 0
-337.402857 297.265714 1317.000000 0 0 0
-337.402857 299.774286 1317.000000 0 0 0
-336.121905 301.135238 1312.000000 0 0 0
-336.121905 303.634286 1312.000000 0 0 0
-336.121905 306.133333 1312.000000 0 0 0
-336.121905 308.632381 1312.000000 0 0 0
-336.121905 311.131429 1312.000000 0 0 0
-336.121905 313.630476 1312.000000 0 0 0
-334.840952 314.924762 1307.000000 0 0 0
-334.840952 317.414286 1307.000000 0 0 0
-334.840952 319.903810 1307.000000 0 0 0
-334.840952 322.393333 1307.000000 0 0 0
-334.840952 324.882857 1307.000000 0 0 0
-334.840952 327.372381 1307.000000 0 0 0
-334.840952 329.861905 1307.000000 0 0 0
-333.560000 331.080000 1302.000000 0 0 0
-333.560000 333.560000 1302.000000 0 0 0
-329.973333 332.426667 1288.000000 0 0 0
-329.973333 334.880000 1288.000000 0 0 0
-329.973333 337.333333 1288.000000 0 0 0
-329.973333 339.786667 1288.000000 0 0 0
-329.973333 342.240000 1288.000000 0 0 0
-330.998095 345.763810 1292.000000 0 0 0
-330.998095 348.224762 1292.000000 0 0 0
-332.279048 352.042857 1297.000000 0 0 0
-332.279048 354.513333 1297.000000 0 0 0
-332.279048 356.983810 1297.000000 0 0 0
-332.279048 359.454286 1297.000000 0 0 0
-328.692381 358.018095 1283.000000 0 0 0
-327.411429 359.057143 1278.000000 0 0 0
-327.411429 361.491429 1278.000000 0 0 0
-326.130476 362.501905 1273.000000 0 0 0
-326.130476 364.926667 1273.000000 0 0 0
-326.130476 367.351429 1273.000000 0 0 0
-326.130476 369.776190 1273.000000 0 0 0
-326.130476 372.200952 1273.000000 0 0 0
-326.130476 374.625714 1273.000000 0 0 0
-326.130476 377.050476 1273.000000 0 0 0
-326.130476 379.475238 1273.000000 0 0 0
-326.130476 381.900000 1273.000000 0 0 0
-324.849524 382.815238 1268.000000 0 0 0
-324.849524 385.230476 1268.000000 0 0 0
-323.824762 386.422857 1264.000000 0 0 0
-322.543810 387.292381 1259.000000 0 0 0
-322.543810 389.690476 1259.000000 0 0 0
-322.543810 392.088571 1259.000000 0 0 0
-321.519048 393.233333 1255.000000 0 0 0
-321.519048 395.623810 1255.000000 0 0 0
-320.238095 396.428571 1250.000000 0 0 0
-320.238095 398.809524 1250.000000 0 0 0
-320.238095 401.190476 1250.000000 0 0 0
-320.238095 403.571429 1250.000000 0 0 0
-318.957143 404.328571 1245.000000 0 0 0
-318.957143 406.700000 1245.000000 0 0 0
-320.238095 410.714286 1250.000000 0 0 0
-320.238095 413.095238 1250.000000 0 0 0
-320.238095 415.476190 1250.000000 0 0 0
-320.238095 417.857143 1250.000000 0 0 0
-320.238095 420.238095 1250.000000 0 0 0
-321.519048 424.309524 1255.000000 0 0 0
-321.519048 426.700000 1255.000000 0 0 0
-321.519048 429.090476 1255.000000 0 0 0
-320.238095 429.761905 1250.000000 0 0 0
-318.957143 430.414286 1245.000000 0 0 0
-318.957143 432.785714 1245.000000 0 0 0
-317.932381 433.759048 1241.000000 0 0 0
-317.932381 436.122857 1241.000000 0 0 0
-318.957143 439.900000 1245.000000 0 0 0
-318.957143 442.271429 1245.000000 0 0 0
-318.957143 444.642857 1245.000000 0 0 0
-318.957143 447.014286 1245.000000 0 0 0
-318.957143 449.385714 1245.000000 0 0 0
-317.932381 450.305714 1241.000000 0 0 0
-317.932381 452.669524 1241.000000 0 0 0
-315.626667 451.733333 1232.000000 0 0 0
-315.626667 454.080000 1232.000000 0 0 0
-316.651429 457.908571 1236.000000 0 0 0
-316.651429 460.262857 1236.000000 0 0 0
-315.626667 461.120000 1232.000000 0 0 0
-315.626667 463.466667 1232.000000 0 0 0
-315.626667 465.813333 1232.000000 255 255 255
-315.626667 468.160000 1232.000000 255 255 255
-315.626667 470.506667 1232.000000 255 255 255
-388.802857 -106.301905 1529.000000 0 0 0
-388.802857 -103.389524 1529.000000 0 0 0
-388.802857 -100.477143 1529.000000 0 0 0
-388.802857 -97.564762 1529.000000 0 0 0
-387.277143 -94.280952 1523.000000 0 0 0
-387.277143 -91.380000 1523.000000 0 0 0
-387.277143 -88.479048 1523.000000 0 0 0
-387.277143 -85.578095 1523.000000 0 0 0
-387.277143 -82.677143 1523.000000 0 0 0
-387.277143 -79.776190 1523.000000 0 0 0
-385.497143 -76.521905 1516.000000 0 0 0
-385.497143 -73.634286 1516.000000 0 0 0
-385.497143 -70.746667 1516.000000 0 0 0
-385.497143 -67.859048 1516.000000 0 0 0
-385.497143 -64.971429 1516.000000 0 0 0
-385.497143 -62.083810 1516.000000 0 0 0
-383.717143 -58.922857 1509.000000 0 0 0
-383.717143 -56.048571 1509.000000 0 0 0
-383.717143 -53.174286 1509.000000 0 0 0
-383.717143 -50.300000 1509.000000 0 0 0
-382.191429 -47.237143 1503.000000 0 0 0
-380.411429 -44.167619 1496.000000 0 0 0
-380.411429 -41.318095 1496.000000 0 0 0
-380.411429 -38.468571 1496.000000 0 0 0
-380.411429 -35.619048 1496.000000 0 0 0
-378.631429 -32.616190 1489.000000 0 0 0
-378.631429 -29.780000 1489.000000 0 0 0
-378.631429 -26.943810 1489.000000 0 0 0
-378.631429 -24.107619 1489.000000 0 0 0
-378.631429 -21.271429 1489.000000 0 0 0
-378.631429 -18.435238 1489.000000 0 0 0
-377.105714 -15.536190 1483.000000 0 0 0
-377.105714 -12.711429 1483.000000 0 0 0
-377.105714 -9.886667 1483.000000 0 0 0
-377.105714 -7.061905 1483.000000 0 0 0
-375.580000 -4.220000 1477.000000 0 0 0
-375.580000 -1.406667 1477.000000 0 0 0
-373.800000 1.400000 1470.000000 0 0 0
-373.800000 4.200000 1470.000000 0 0 0
-373.800000 7.000000 1470.000000 0 0 0
-373.800000 9.800000 1470.000000 0 0 0
-373.800000 12.600000 1470.000000 0 0 0
-373.800000 15.400000 1470.000000 0 0 0
-372.274286 18.125714 1464.000000 0 0 0
-372.274286 20.914286 1464.000000 0 0 0
-372.274286 23.702857 1464.000000 0 0 0
-372.274286 26.491429 1464.000000 0 0 0
-372.274286 29.280000 1464.000000 0 0 0
-373.800000 32.200000 1470.000000 0 0 0
-372.274286 34.857143 1464.000000 0 0 0
-372.274286 37.645714 1464.000000 0 0 0
-373.800000 40.600000 1470.000000 0 0 0
-373.800000 43.400000 1470.000000 0 0 0
-372.274286 46.011429 1464.000000 0 0 0
-372.274286 48.800000 1464.000000 0 0 0
-372.274286 51.588571 1464.000000 0 0 0
-370.748571 54.154286 1458.000000 0 0 0
-370.748571 56.931429 1458.000000 0 0 0
-369.222857 59.462857 1452.000000 0 0 0
-369.222857 62.228571 1452.000000 0 0 0
-365.917143 64.412381 1439.000000 0 0 0
-364.391429 66.873333 1433.000000 0 0 0
-364.391429 69.602857 1433.000000 0 0 0
-361.340000 71.726667 1421.000000 0 0 0
-361.340000 74.433333 1421.000000 0 0 0
-361.340000 77.140000 1421.000000 0 0 0
-361.340000 79.846667 1421.000000 0 0 0
-361.340000 98.793333 1421.000000 0 0 0
-361.340000 101.500000 1421.000000 0 0 0
-361.340000 104.206667 1421.000000 0 0 0
-361.340000 106.913333 1421.000000 0 0 0
-359.814286 109.157143 1415.000000 0 0 0
-359.814286 111.852381 1415.000000 0 0 0
-359.814286 114.547619 1415.000000 0 0 0
-358.542857 116.828571 1410.000000 0 0 0
-358.542857 119.514286 1410.000000 0 0 0
-358.542857 122.200000 1410.000000 0 0 0
-358.542857 124.885714 1410.000000 0 0 0
-357.017143 127.028571 1404.000000 0 0 0
-355.491429 129.148571 1398.000000 0 0 0
-355.491429 131.811429 1398.000000 0 0 0
-355.491429 134.474286 1398.000000 0 0 0
-355.491429 137.137143 1398.000000 0 0 0
-353.965714 139.200000 1392.000000 0 0 0
-353.965714 141.851429 1392.000000 0 0 0
-353.965714 144.502857 1392.000000 0 0 0
-353.965714 147.154286 1392.000000 0 0 0
-353.965714 149.805714 1392.000000 0 0 0
-348.371429 194.409524 1370.000000 0 0 0
-347.100000 196.300000 1365.000000 0 0 0
-347.100000 198.900000 1365.000000 0 0 0
-348.371429 202.238095 1370.000000 0 0 0
-348.371429 204.847619 1370.000000 0 0 0
-347.100000 206.700000 1365.000000 0 0 0
-347.100000 209.300000 1365.000000 0 0 0
-345.574286 210.968571 1359.000000 0 0 0
-344.302857 212.771429 1354.000000 0 0 0
-344.302857 215.350476 1354.000000 0 0 0
-343.031429 217.124762 1349.000000 0 0 0
-343.031429 219.694286 1349.000000 0 0 0
-343.031429 222.263810 1349.000000 0 0 0
-341.505714 223.833333 1343.000000 0 0 0
-341.505714 226.391429 1343.000000 0 0 0
-343.031429 229.972381 1349.000000 0 0 0
-343.031429 232.541905 1349.000000 0 0 0
-343.031429 235.111429 1349.000000 0 0 0
-343.031429 237.680952 1349.000000 0 0 0
-343.031429 240.250476 1349.000000 0 0 0
-343.031429 242.820000 1349.000000 0 0 0
-345.574286 247.208571 1359.000000 0 0 0
-336.165714 288.321905 1322.000000 0 0 0
-334.894286 289.740000 1317.000000 0 0 0
-333.622857 291.139048 1312.000000 0 0 0
-333.622857 293.638095 1312.000000 0 0 0
-333.622857 296.137143 1312.000000 0 0 0
-333.622857 298.636190 1312.000000 0 0 0
-333.622857 301.135238 1312.000000 0 0 0
-332.351429 302.477143 1307.000000 0 0 0
-332.351429 304.966667 1307.000000 0 0 0
-333.622857 308.632381 1312.000000 0 0 0
-334.894286 312.317143 1317.000000 0 0 0
-334.894286 314.825714 1317.000000 0 0 0
-333.622857 316.129524 1312.000000 0 0 0
-333.622857 318.628571 1312.000000 0 0 0
-332.351429 319.903810 1307.000000 0 0 0
-332.351429 322.393333 1307.000000 0 0 0
-333.622857 326.125714 1312.000000 0 0 0
-332.351429 327.372381 1307.000000 0 0 0
-332.351429 329.861905 1307.000000 0 0 0
-331.080000 331.080000 1302.000000 0 0 0
-331.080000 333.560000 1302.000000 0 0 0
-332.351429 337.330476 1307.000000 0 0 0
-328.537143 335.920000 1292.000000 0 0 0
-327.520000 337.333333 1288.000000 0 0 0
-327.520000 339.786667 1288.000000 0 0 0
-327.520000 342.240000 1288.000000 0 0 0
-328.537143 345.763810 1292.000000 0 0 0
-328.537143 348.224762 1292.000000 0 0 0
-329.808571 352.042857 1297.000000 0 0 0
-329.808571 354.513333 1297.000000 0 0 0
-329.808571 356.983810 1297.000000 0 0 0
-329.808571 359.454286 1297.000000 0 0 0
-324.977143 356.622857 1278.000000 0 0 0
-323.705714 357.652381 1273.000000 0 0 0
-323.705714 360.077143 1273.000000 0 0 0
-323.705714 362.501905 1273.000000 0 0 0
-323.705714 364.926667 1273.000000 0 0 0
-323.705714 367.351429 1273.000000 0 0 0
-323.705714 369.776190 1273.000000 0 0 0
-323.705714 372.200952 1273.000000 0 0 0
-322.434286 373.154286 1268.000000 0 0 0
-322.434286 375.569524 1268.000000 0 0 0
-323.705714 379.475238 1273.000000 0 0 0
-323.705714 381.900000 1273.000000 0 0 0
-322.434286 382.815238 1268.000000 0 0 0
-322.434286 385.230476 1268.000000 0 0 0
-321.417143 386.422857 1264.000000 0 0 0
-320.145714 387.292381 1259.000000 0 0 0
-320.145714 389.690476 1259.000000 0 0 0
-320.145714 392.088571 1259.000000 0 0 0
-319.128571 393.233333 1255.000000 0 0 0
-319.128571 395.623810 1255.000000 0 0 0
-319.128571 398.014286 1255.000000 0 0 0
-319.128571 400.404762 1255.000000 0 0 0
-319.128571 402.795238 1255.000000 0 0 0
-317.857143 403.571429 1250.000000 0 0 0
-316.585714 404.328571 1245.000000 0 0 0
-316.585714 406.700000 1245.000000 0 0 0
-317.857143 410.714286 1250.000000 0 0 0
-317.857143 413.095238 1250.000000 0 0 0
-317.857143 415.476190 1250.000000 0 0 0
-319.128571 419.528571 1255.000000 0 0 0
-319.128571 421.919048 1255.000000 0 0 0
-319.128571 424.309524 1255.000000 0 0 0
-320.145714 428.060000 1259.000000 0 0 0
-320.145714 430.458095 1259.000000 0 0 0
-319.128571 431.480952 1255.000000 0 0 0
-317.857143 432.142857 1250.000000 0 0 0
-317.857143 434.523810 1250.000000 0 0 0
-315.568571 433.759048 1241.000000 0 0 0
-315.568571 436.122857 1241.000000 0 0 0
-316.585714 439.900000 1245.000000 0 0 0
-316.585714 442.271429 1245.000000 0 0 0
-315.568571 443.214286 1241.000000 0 0 0
-316.585714 447.014286 1245.000000 0 0 0
-315.568571 447.941905 1241.000000 0 0 0
-315.568571 450.305714 1241.000000 0 0 0
-315.568571 452.669524 1241.000000 0 0 0
-314.297143 453.200000 1236.000000 0 0 0
-314.297143 455.554286 1236.000000 0 0 0
-314.297143 457.908571 1236.000000 0 0 0
-314.297143 460.262857 1236.000000 0 0 0
-313.280000 461.120000 1232.000000 0 0 0
-313.280000 463.466667 1232.000000 0 0 0
-313.280000 465.813333 1232.000000 0 0 0
-313.280000 468.160000 1232.000000 0 0 0
-314.297143 472.034286 1236.000000 255 255 255
-315.568571 476.307619 1241.000000 255 255 255
-385.890476 -106.301905 1529.000000 0 0 0
-384.376190 -102.983810 1523.000000 0 0 0
-384.376190 -100.082857 1523.000000 0 0 0
-387.657143 -98.011429 1536.000000 0 0 0
-384.376190 -94.280952 1523.000000 0 0 0
-384.376190 -91.380000 1523.000000 0 0 0
-384.376190 -88.479048 1523.000000 0 0 0
-384.376190 -85.578095 1523.000000 0 0 0
-384.376190 -82.677143 1523.000000 0 0 0
-384.376190 -79.776190 1523.000000 0 0 0
-382.609524 -76.521905 1516.000000 0 0 0
-382.609524 -73.634286 1516.000000 0 0 0
-382.609524 -70.746667 1516.000000 0 0 0
-382.609524 -67.859048 1516.000000 0 0 0
-382.609524 -64.971429 1516.000000 0 0 0
-382.609524 -62.083810 1516.000000 0 0 0
-380.842857 -58.922857 1509.000000 0 0 0
-380.842857 -56.048571 1509.000000 0 0 0
-380.842857 -53.174286 1509.000000 0 0 0
-380.842857 -50.300000 1509.000000 0 0 0
-379.328571 -47.237143 1503.000000 0 0 0
-377.561905 -44.167619 1496.000000 0 0 0
-377.561905 -41.318095 1496.000000 0 0 0
-377.561905 -38.468571 1496.000000 0 0 0
-375.795238 -35.452381 1489.000000 0 0 0
-375.795238 -32.616190 1489.000000 0 0 0
-375.795238 -29.780000 1489.000000 0 0 0
-375.795238 -26.943810 1489.000000 0 0 0
-375.795238 -24.107619 1489.000000 0 0 0
-375.795238 -21.271429 1489.000000 0 0 0
-375.795238 -18.435238 1489.000000 0 0 0
-374.280952 -15.536190 1483.000000 0 0 0
-374.280952 -12.711429 1483.000000 0 0 0
-374.280952 -9.886667 1483.000000 0 0 0
-374.280952 -7.061905 1483.000000 0 0 0
-372.766667 -4.220000 1477.000000 0 0 0
-371.000000 -1.400000 1470.000000 0 0 0
-371.000000 1.400000 1470.000000 0 0 0
-369.485714 4.182857 1464.000000 0 0 0
-369.485714 6.971429 1464.000000 0 0 0
-369.485714 9.760000 1464.000000 0 0 0
-369.485714 12.548571 1464.000000 0 0 0
-369.485714 15.337143 1464.000000 0 0 0
-369.485714 18.125714 1464.000000 0 0 0
-369.485714 20.914286 1464.000000 0 0 0
-369.485714 23.702857 1464.000000 0 0 0
-369.485714 26.491429 1464.000000 0 0 0
-369.485714 29.280000 1464.000000 0 0 0
-369.485714 32.068571 1464.000000 0 0 0
-369.485714 34.857143 1464.000000 0 0 0
-369.485714 37.645714 1464.000000 0 0 0
-369.485714 40.434286 1464.000000 0 0 0
-369.485714 43.222857 1464.000000 0 0 0
-369.485714 46.011429 1464.000000 0 0 0
-367.971429 48.600000 1458.000000 0 0 0
-367.971429 51.377143 1458.000000 0 0 0
-367.971429 54.154286 1458.000000 0 0 0
-367.971429 56.931429 1458.000000 0 0 0
-367.971429 59.708571 1458.000000 0 0 0
-366.457143 62.228571 1452.000000 0 0 0
-363.176190 64.412381 1439.000000 0 0 0
-361.661905 66.873333 1433.000000 0 0 0
-361.661905 69.602857 1433.000000 0 0 0
-358.633333 71.726667 1421.000000 0 0 0
-358.633333 74.433333 1421.000000 0 0 0
-360.147619 77.465714 1427.000000 0 0 0
-360.147619 80.183810 1427.000000 0 0 0
-360.147619 99.210476 1427.000000 0 0 0
-360.147619 101.928571 1427.000000 0 0 0
-360.147619 104.646667 1427.000000 0 0 0
-358.633333 106.913333 1421.000000 0 0 0
-357.119048 109.157143 1415.000000 0 0 0
-357.119048 111.852381 1415.000000 0 0 0
-357.119048 114.547619 1415.000000 0 0 0
-355.857143 116.828571 1410.000000 0 0 0
-355.857143 119.514286 1410.000000 0 0 0
-355.857143 122.200000 1410.000000 0 0 0
-355.857143 124.885714 1410.000000 0 0 0
-354.342857 127.028571 1404.000000 0 0 0
-354.342857 129.702857 1404.000000 0 0 0
-352.828571 131.811429 1398.000000 0 0 0
-352.828571 134.474286 1398.000000 0 0 0
-352.828571 137.137143 1398.000000 0 0 0
-351.314286 139.200000 1392.000000 0 0 0
-351.314286 141.851429 1392.000000 0 0 0
-351.314286 144.502857 1392.000000 0 0 0
-351.314286 147.154286 1392.000000 0 0 0
-351.314286 149.805714 1392.000000 0 0 0
-351.314286 152.457143 1392.000000 0 0 0
-344.500000 196.300000 1365.000000 0 0 0
-344.500000 198.900000 1365.000000 0 0 0
-345.761905 202.238095 1370.000000 0 0 0
-345.761905 204.847619 1370.000000 0 0 0
-344.500000 206.700000 1365.000000 0 0 0
-344.500000 209.300000 1365.000000 0 0 0
-342.985714 210.968571 1359.000000 0 0 0
-342.985714 213.557143 1359.000000 0 0 0
-341.723810 215.350476 1354.000000 0 0 0
-340.461905 217.124762 1349.000000 0 0 0
-340.461905 219.694286 1349.000000 0 0 0
-340.461905 222.263810 1349.000000 0 0 0
-340.461905 224.833333 1349.000000 0 0 0
-340.461905 227.402857 1349.000000 0 0 0
-340.461905 229.972381 1349.000000 0 0 0
-340.461905 232.541905 1349.000000 0 0 0
-340.461905 235.111429 1349.000000 0 0 0
-340.461905 237.680952 1349.000000 0 0 0
-340.461905 240.250476 1349.000000 0 0 0
-340.461905 242.820000 1349.000000 0 0 0
-333.647619 288.321905 1322.000000 0 0 0
-332.385714 289.740000 1317.000000 0 0 0
-331.123810 291.139048 1312.000000 0 0 0
-331.123810 293.638095 1312.000000 0 0 0
-331.123810 296.137143 1312.000000 0 0 0
-329.861905 297.498095 1307.000000 0 0 0
-329.861905 299.987619 1307.000000 0 0 0
-329.861905 302.477143 1307.000000 0 0 0
-329.861905 304.966667 1307.000000 0 0 0
-329.861905 307.456190 1307.000000 0 0 0
-331.123810 311.131429 1312.000000 0 0 0
-331.123810 313.630476 1312.000000 0 0 0
-331.123810 316.129524 1312.000000 0 0 0
-331.123810 318.628571 1312.000000 0 0 0
-331.123810 321.127619 1312.000000 0 0 0
-331.123810 323.626667 1312.000000 0 0 0
-329.861905 324.882857 1307.000000 0 0 0
-329.861905 327.372381 1307.000000 0 0 0
-329.861905 329.861905 1307.000000 0 0 0
-328.600000 331.080000 1302.000000 0 0 0
-328.600000 333.560000 1302.000000 0 0 0
-326.076190 333.459048 1292.000000 0 0 0
-325.066667 334.880000 1288.000000 0 0 0
-325.066667 337.333333 1288.000000 0 0 0
-325.066667 339.786667 1288.000000 0 0 0
-325.066667 342.240000 1288.000000 0 0 0
-325.066667 344.693333 1288.000000 0 0 0
-326.076190 348.224762 1292.000000 0 0 0
-327.338095 352.042857 1297.000000 0 0 0
-327.338095 354.513333 1297.000000 0 0 0
-327.338095 356.983810 1297.000000 0 0 0
-327.338095 359.454286 1297.000000 0 0 0
-322.542857 356.622857 1278.000000 0 0 0
-321.280952 357.652381 1273.000000 0 0 0
-321.280952 360.077143 1273.000000 0 0 0
-321.280952 362.501905 1273.000000 0 0 0
-321.280952 364.926667 1273.000000 0 0 0
-321.280952 367.351429 1273.000000 0 0 0
-320.019048 368.323810 1268.000000 0 0 0
-320.019048 370.739048 1268.000000 0 0 0
-320.019048 373.154286 1268.000000 0 0 0
-320.019048 375.569524 1268.000000 0 0 0
-320.019048 377.984762 1268.000000 0 0 0
-320.019048 380.400000 1268.000000 0 0 0
-320.019048 382.815238 1268.000000 0 0 0
-320.019048 385.230476 1268.000000 0 0 0
-319.009524 386.422857 1264.000000 0 0 0
-319.009524 388.830476 1264.000000 0 0 0
-317.747619 389.690476 1259.000000 0 0 0
-316.738095 390.842857 1255.000000 0 0 0
-316.738095 393.233333 1255.000000 0 0 0
-316.738095 395.623810 1255.000000 0 0 0
-316.738095 398.014286 1255.000000 0 0 0
-316.738095 400.404762 1255.000000 0 0 0
-315.476190 401.190476 1250.000000 0 0 0
-315.476190 403.571429 1250.000000 0 0 0
-314.214286 404.328571 1245.000000 0 0 0
-314.214286 406.700000 1245.000000 0 0 0
-315.476190 410.714286 1250.000000 0 0 0
-314.214286 411.442857 1245.000000 0 0 0
-314.214286 413.814286 1245.000000 0 0 0
-316.738095 419.528571 1255.000000 0 0 0
-316.738095 421.919048 1255.000000 0 0 0
-316.738095 424.309524 1255.000000 0 0 0
-317.747619 428.060000 1259.000000 0 0 0
-317.747619 430.458095 1259.000000 0 0 0
-316.738095 431.480952 1255.000000 0 0 0
-315.476190 432.142857 1250.000000 0 0 0
-315.476190 434.523810 1250.000000 0 0 0
-314.214286 435.157143 1245.000000 0 0 0
-314.214286 437.528571 1245.000000 0 0 0
-314.214286 439.900000 1245.000000 0 0 0
-313.204762 440.850476 1241.000000 0 0 0
-313.204762 443.214286 1241.000000 0 0 0
-311.942857 443.782857 1236.000000 0 0 0
-314.214286 449.385714 1245.000000 0 0 0
-311.942857 453.200000 1236.000000 0 0 0
-311.942857 455.554286 1236.000000 0 0 0
-311.942857 457.908571 1236.000000 0 0 0
-311.942857 460.262857 1236.000000 0 0 0
-311.942857 462.617143 1236.000000 0 0 0
-311.942857 464.971429 1236.000000 0 0 0
-311.942857 467.325714 1236.000000 0 0 0
-311.942857 469.680000 1236.000000 0 0 0
-310.933333 470.506667 1232.000000 255 255 255
-310.933333 472.853333 1232.000000 255 255 255
-382.978095 -109.214286 1529.000000 0 0 0
-382.978095 -106.301905 1529.000000 0 0 0
-381.475238 -102.983810 1523.000000 0 0 0
-381.475238 -100.082857 1523.000000 0 0 0
-384.731429 -98.011429 1536.000000 0 0 0
-381.475238 -94.280952 1523.000000 0 0 0
-381.475238 -91.380000 1523.000000 0 0 0
-381.475238 -88.479048 1523.000000 0 0 0
-381.475238 -85.578095 1523.000000 0 0 0
-381.475238 -82.677143 1523.000000 0 0 0
-381.475238 -79.776190 1523.000000 0 0 0
-379.721905 -76.521905 1516.000000 0 0 0
-379.721905 -73.634286 1516.000000 0 0 0
-379.721905 -70.746667 1516.000000 0 0 0
-379.721905 -67.859048 1516.000000 0 0 0
-379.721905 -64.971429 1516.000000 0 0 0
-377.968571 -61.797143 1509.000000 0 0 0
-377.968571 -58.922857 1509.000000 0 0 0
-377.968571 -56.048571 1509.000000 0 0 0
-376.465714 -52.962857 1503.000000 0 0 0
-376.465714 -50.100000 1503.000000 0 0 0
-376.465714 -47.237143 1503.000000 0 0 0
-374.712381 -44.167619 1496.000000 0 0 0
-374.712381 -41.318095 1496.000000 0 0 0
-374.712381 -38.468571 1496.000000 0 0 0
-372.959048 -35.452381 1489.000000 0 0 0
-372.959048 -32.616190 1489.000000 0 0 0
-372.959048 -29.780000 1489.000000 0 0 0
-372.959048 -26.943810 1489.000000 0 0 0
-372.959048 -24.107619 1489.000000 0 0 0
-372.959048 -21.271429 1489.000000 0 0 0
-372.959048 -18.435238 1489.000000 0 0 0
-371.456190 -15.536190 1483.000000 0 0 0
-371.456190 -12.711429 1483.000000 0 0 0
-371.456190 -9.886667 1483.000000 0 0 0
-371.456190 -7.061905 1483.000000 0 0 0
-369.953333 -4.220000 1477.000000 0 0 0
-368.200000 -1.400000 1470.000000 0 0 0
-366.697143 1.394286 1464.000000 0 0 0
-366.697143 4.182857 1464.000000 0 0 0
-366.697143 6.971429 1464.000000 0 0 0
-366.697143 9.760000 1464.000000 0 0 0
-366.697143 12.548571 1464.000000 0 0 0
-366.697143 15.337143 1464.000000 0 0 0
-366.697143 18.125714 1464.000000 0 0 0
-366.697143 20.914286 1464.000000 0 0 0
-366.697143 23.702857 1464.000000 0 0 0
-366.697143 26.491429 1464.000000 0 0 0
-366.697143 29.280000 1464.000000 0 0 0
-366.697143 32.068571 1464.000000 0 0 0
-366.697143 34.857143 1464.000000 0 0 0
-366.697143 37.645714 1464.000000 0 0 0
-366.697143 40.434286 1464.000000 0 0 0
-366.697143 43.222857 1464.000000 0 0 0
-365.194286 45.822857 1458.000000 0 0 0
-365.194286 48.600000 1458.000000 0 0 0
-365.194286 51.377143 1458.000000 0 0 0
-365.194286 54.154286 1458.000000 0 0 0
-365.194286 56.931429 1458.000000 0 0 0
-363.691429 59.462857 1452.000000 0 0 0
-363.691429 62.228571 1452.000000 0 0 0
-361.938095 64.680952 1445.000000 0 0 0
-360.435238 67.153333 1439.000000 0 0 0
-360.435238 69.894286 1439.000000 0 0 0
-357.429524 72.029524 1427.000000 0 0 0
-357.429524 74.747619 1427.000000 0 0 0
-357.429524 77.465714 1427.000000 0 0 0
-357.429524 80.183810 1427.000000 0 0 0
-357.429524 101.928571 1427.000000 0 0 0
-354.423810 103.766667 1415.000000 0 0 0
-354.423810 106.461905 1415.000000 0 0 0
-354.423810 109.157143 1415.000000 0 0 0
-354.423810 111.852381 1415.000000 0 0 0
-353.171429 114.142857 1410.000000 0 0 0
-353.171429 116.828571 1410.000000 0 0 0
-353.171429 119.514286 1410.000000 0 0 0
-353.171429 122.200000 1410.000000 0 0 0
-353.171429 124.885714 1410.000000 0 0 0
-353.171429 127.571429 1410.000000 0 0 0
-351.668571 129.702857 1404.000000 0 0 0
-351.668571 132.377143 1404.000000 0 0 0
-350.165714 134.474286 1398.000000 0 0 0
-350.165714 137.137143 1398.000000 0 0 0
-350.165714 139.800000 1398.000000 0 0 0
-350.165714 142.462857 1398.000000 0 0 0
-348.662857 144.502857 1392.000000 0 0 0
-348.662857 147.154286 1392.000000 0 0 0
-347.410476 149.267619 1387.000000 0 0 0
-347.410476 151.909524 1387.000000 0 0 0
-337.892381 229.972381 1349.000000 0 0 0
-337.892381 232.541905 1349.000000 0 0 0
-337.892381 235.111429 1349.000000 0 0 0
-337.892381 237.680952 1349.000000 0 0 0
-337.892381 240.250476 1349.000000 0 0 0
-337.892381 242.820000 1349.000000 0 0 0
-331.129524 285.803810 1322.000000 0 0 0
-331.129524 288.321905 1322.000000 0 0 0
-328.624762 288.640000 1312.000000 0 0 0
-327.372381 290.029524 1307.000000 0 0 0
-327.372381 292.519048 1307.000000 0 0 0
-327.372381 295.008571 1307.000000 0 0 0
-327.372381 297.498095 1307.000000 0 0 0
-327.372381 299.987619 1307.000000 0 0 0
-327.372381 302.477143 1307.000000 0 0 0
-327.372381 304.966667 1307.000000 0 0 0
-327.372381 307.456190 1307.000000 0 0 0
-328.624762 311.131429 1312.000000 0 0 0
-328.624762 313.630476 1312.000000 0 0 0
-328.624762 316.129524 1312.000000 0 0 0
-328.624762 318.628571 1312.000000 0 0 0
-327.372381 319.903810 1307.000000 0 0 0
-327.372381 322.393333 1307.000000 0 0 0
-327.372381 324.882857 1307.000000 0 0 0
-327.372381 327.372381 1307.000000 0 0 0
-327.372381 329.861905 1307.000000 0 0 0
-327.372381 332.351429 1307.000000 0 0 0
-326.120000 333.560000 1302.000000 0 0 0
-323.615238 333.459048 1292.000000 0 0 0
-322.613333 334.880000 1288.000000 0 0 0
-322.613333 337.333333 1288.000000 0 0 0
-322.613333 339.786667 1288.000000 0 0 0
-322.613333 342.240000 1288.000000 0 0 0
-322.613333 344.693333 1288.000000 0 0 0
-323.615238 348.224762 1292.000000 0 0 0
-324.867619 352.042857 1297.000000 0 0 0
-323.615238 353.146667 1292.000000 0 0 0
-323.615238 355.607619 1292.000000 0 0 0
-321.360952 355.574286 1283.000000 0 0 0
-320.108571 356.622857 1278.000000 0 0 0
-318.856190 357.652381 1273.000000 0 0 0
-318.856190 360.077143 1273.000000 0 0 0
-318.856190 362.501905 1273.000000 0 0 0
-318.856190 364.926667 1273.000000 0 0 0
-318.856190 367.351429 1273.000000 0 0 0
-317.603810 368.323810 1268.000000 0 0 0
-317.603810 370.739048 1268.000000 0 0 0
-317.603810 373.154286 1268.000000 0 0 0
-317.603810 375.569524 1268.000000 0 0 0
-317.603810 377.984762 1268.000000 0 0 0
-317.603810 380.400000 1268.000000 0 0 0
-317.603810 382.815238 1268.000000 0 0 0
-317.603810 385.230476 1268.000000 0 0 0
-316.601905 386.422857 1264.000000 0 0 0
-316.601905 388.830476 1264.000000 0 0 0
-316.601905 391.238095 1264.000000 0 0 0
-314.347619 390.842857 1255.000000 0 0 0
-314.347619 393.233333 1255.000000 0 0 0
-314.347619 395.623810 1255.000000 0 0 0
-314.347619 398.014286 1255.000000 0 0 0
-314.347619 400.404762 1255.000000 0 0 0
-313.095238 401.190476 1250.000000 0 0 0
-313.095238 403.571429 1250.000000 0 0 0
-311.842857 404.328571 1245.000000 0 0 0
-311.842857 406.700000 1245.000000 0 0 0
-313.095238 410.714286 1250.000000 0 0 0
-311.842857 411.442857 1245.000000 0 0 0
-311.842857 413.814286 1245.000000 0 0 0
-314.347619 419.528571 1255.000000 0 0 0
-314.347619 421.919048 1255.000000 0 0 0
-314.347619 424.309524 1255.000000 0 0 0
-314.347619 426.700000 1255.000000 0 0 0
-314.347619 429.090476 1255.000000 0 0 0
-313.095238 429.761905 1250.000000 0 0 0
-313.095238 432.142857 1250.000000 0 0 0
-313.095238 434.523810 1250.000000 0 0 0
-311.842857 435.157143 1245.000000 0 0 0
-311.842857 437.528571 1245.000000 0 0 0
-311.842857 439.900000 1245.000000 0 0 0
-310.840952 440.850476 1241.000000 0 0 0
-309.588571 441.428571 1236.000000 0 0 0
-309.588571 443.782857 1236.000000 0 0 0
-311.842857 449.385714 1245.000000 0 0 0
-309.588571 453.200000 1236.000000 0 0 0
-309.588571 455.554286 1236.000000 0 0 0
-309.588571 457.908571 1236.000000 0 0 0
-309.588571 460.262857 1236.000000 0 0 0
-308.586667 461.120000 1232.000000 0 0 0
-308.586667 463.466667 1232.000000 0 0 0
-308.586667 465.813333 1232.000000 0 0 0
-308.586667 468.160000 1232.000000 0 0 0
-308.586667 470.506667 1232.000000 0 0 0
-308.586667 472.853333 1232.000000 0 0 0
-308.586667 475.200000 1232.000000 255 255 255
-307.334286 475.608571 1227.000000 255 255 255
-307.334286 477.945714 1227.000000 255 255 255
-383.545714 -116.092381 1543.000000 0 0 0
-381.805714 -112.640000 1536.000000 0 0 0
-380.065714 -109.214286 1529.000000 0 0 0
-380.065714 -106.301905 1529.000000 0 0 0
-380.065714 -103.389524 1529.000000 0 0 0
-380.065714 -100.477143 1529.000000 0 0 0
-381.805714 -98.011429 1536.000000 0 0 0
-378.574286 -94.280952 1523.000000 0 0 0
-378.574286 -91.380000 1523.000000 0 0 0
-378.574286 -88.479048 1523.000000 0 0 0
-378.574286 -85.578095 1523.000000 0 0 0
-378.574286 -82.677143 1523.000000 0 0 0
-376.834286 -79.409524 1516.000000 0 0 0
-376.834286 -76.521905 1516.000000 0 0 0
-376.834286 -73.634286 1516.000000 0 0 0
-376.834286 -70.746667 1516.000000 0 0 0
-376.834286 -67.859048 1516.000000 0 0 0
-375.094286 -64.671429 1509.000000 0 0 0
-375.094286 -61.797143 1509.000000 0 0 0
-375.094286 -58.922857 1509.000000 0 0 0
-375.094286 -56.048571 1509.000000 0 0 0
-373.602857 -52.962857 1503.000000 0 0 0
-373.602857 -50.100000 1503.000000 0 0 0
-373.602857 -47.237143 1503.000000 0 0 0
-371.862857 -44.167619 1496.000000 0 0 0
-371.862857 -41.318095 1496.000000 0 0 0
-371.862857 -38.468571 1496.000000 0 0 0
-370.122857 -35.452381 1489.000000 0 0 0
-370.122857 -32.616190 1489.000000 0 0 0
-370.122857 -29.780000 1489.000000 0 0 0
-370.122857 -26.943810 1489.000000 0 0 0
-370.122857 -24.107619 1489.000000 0 0 0
-370.122857 -21.271429 1489.000000 0 0 0
-370.122857 -18.435238 1489.000000 0 0 0
-368.631429 -15.536190 1483.000000 0 0 0
-368.631429 -12.711429 1483.000000 0 0 0
-368.631429 -9.886667 1483.000000 0 0 0
-368.631429 -7.061905 1483.000000 0 0 0
-367.140000 -4.220000 1477.000000 0 0 0
-365.400000 -1.400000 1470.000000 0 0 0
-363.908571 1.394286 1464.000000 0 0 0
-363.908571 4.182857 1464.000000 0 0 0
-363.908571 6.971429 1464.000000 0 0 0
-363.908571 9.760000 1464.000000 0 0 0
-363.908571 12.548571 1464.000000 0 0 0
-363.908571 15.337143 1464.000000 0 0 0
-363.908571 18.125714 1464.000000 0 0 0
-363.908571 20.914286 1464.000000 0 0 0
-363.908571 23.702857 1464.000000 0 0 0
-363.908571 26.491429 1464.000000 0 0 0
-363.908571 29.280000 1464.000000 0 0 0
-363.908571 32.068571 1464.000000 0 0 0
-363.908571 34.857143 1464.000000 0 0 0
-363.908571 37.645714 1464.000000 0 0 0
-363.908571 40.434286 1464.000000 0 0 0
-363.908571 43.222857 1464.000000 0 0 0
-362.417143 45.822857 1458.000000 0 0 0
-362.417143 48.600000 1458.000000 0 0 0
-362.417143 51.377143 1458.000000 0 0 0
-360.925714 53.931429 1452.000000 0 0 0
-360.925714 56.697143 1452.000000 0 0 0
-360.925714 59.462857 1452.000000 0 0 0
-359.185714 61.928571 1445.000000 0 0 0
-357.694286 64.412381 1439.000000 0 0 0
-357.694286 67.153333 1439.000000 0 0 0
-357.694286 69.894286 1439.000000 0 0 0
-356.202857 72.332381 1433.000000 0 0 0
-356.202857 75.061905 1433.000000 0 0 0
-354.711429 77.465714 1427.000000 0 0 0
-354.711429 80.183810 1427.000000 0 0 0
-354.711429 101.928571 1427.000000 0 0 0
-351.728571 103.766667 1415.000000 0 0 0
-351.728571 106.461905 1415.000000 0 0 0
-351.728571 109.157143 1415.000000 0 0 0
-351.728571 111.852381 1415.000000 0 0 0
-350.485714 114.142857 1410.000000 0 0 0
-350.485714 116.828571 1410.000000 0 0 0
-350.485714 119.514286 1410.000000 0 0 0
-350.485714 122.200000 1410.000000 0 0 0
-348.994286 124.354286 1404.000000 0 0 0
-348.994286 127.028571 1404.000000 0 0 0
-348.994286 129.702857 1404.000000 0 0 0
-347.502857 131.811429 1398.000000 0 0 0
-347.502857 134.474286 1398.000000 0 0 0
-347.502857 137.137143 1398.000000 0 0 0
-346.011429 139.200000 1392.000000 0 0 0
-346.011429 141.851429 1392.000000 0 0 0
-346.011429 144.502857 1392.000000 0 0 0
-346.011429 147.154286 1392.000000 0 0 0
-344.768571 149.267619 1387.000000 0 0 0
-344.768571 151.909524 1387.000000 0 0 0
-344.768571 154.551429 1387.000000 0 0 0
-335.322857 235.111429 1349.000000 0 0 0
-335.322857 237.680952 1349.000000 0 0 0
-330.102857 284.571429 1328.000000 0 0 0
-328.611429 285.803810 1322.000000 0 0 0
-328.611429 288.321905 1322.000000 0 0 0
-326.125714 288.640000 1312.000000 0 0 0
-324.882857 290.029524 1307.000000 0 0 0
-324.882857 292.519048 1307.000000 0 0 0
-324.882857 295.008571 1307.000000 0 0 0
-324.882857 297.498095 1307.000000 0 0 0
-324.882857 299.987619 1307.000000 0 0 0
-324.882857 302.477143 1307.000000 0 0 0
-324.882857 304.966667 1307.000000 0 0 0
-324.882857 307.456190 1307.000000 0 0 0
-326.125714 311.131429 1312.000000 0 0 0
-326.125714 313.630476 1312.000000 0 0 0
-326.125714 316.129524 1312.000000 0 0 0
-326.125714 318.628571 1312.000000 0 0 0
-324.882857 319.903810 1307.000000 0 0 0
-324.882857 322.393333 1307.000000 0 0 0
-323.640000 323.640000 1302.000000 0 0 0
-323.640000 326.120000 1302.000000 0 0 0
-323.640000 328.600000 1302.000000 0 0 0
-323.640000 331.080000 1302.000000 0 0 0
-323.640000 333.560000 1302.000000 0 0 0
-323.640000 336.040000 1302.000000 0 0 0
-320.160000 334.880000 1288.000000 0 0 0
-320.160000 337.333333 1288.000000 0 0 0
-320.160000 339.786667 1288.000000 0 0 0
-320.160000 342.240000 1288.000000 0 0 0
-321.154286 345.763810 1292.000000 0 0 0
-321.154286 348.224762 1292.000000 0 0 0
-321.154286 350.685714 1292.000000 0 0 0
-320.160000 352.053333 1288.000000 0 0 0
-320.160000 354.506667 1288.000000 0 0 0
-317.674286 354.188571 1278.000000 0 0 0
-317.674286 356.622857 1278.000000 0 0 0
-316.431429 357.652381 1273.000000 0 0 0
-316.431429 360.077143 1273.000000 0 0 0
-316.431429 362.501905 1273.000000 0 0 0
-316.431429 364.926667 1273.000000 0 0 0
-316.431429 367.351429 1273.000000 0 0 0
-316.431429 369.776190 1273.000000 0 0 0
-316.431429 372.200952 1273.000000 0 0 0
-315.188571 373.154286 1268.000000 0 0 0
-315.188571 375.569524 1268.000000 0 0 0
-315.188571 377.984762 1268.000000 0 0 0
-315.188571 380.400000 1268.000000 0 0 0
-315.188571 382.815238 1268.000000 0 0 0
-314.194286 384.015238 1264.000000 0 0 0
-314.194286 386.422857 1264.000000 0 0 0
-314.194286 388.830476 1264.000000 0 0 0
-312.951429 389.690476 1259.000000 0 0 0
-312.951429 392.088571 1259.000000 0 0 0
-311.957143 393.233333 1255.000000 0 0 0
-311.957143 395.623810 1255.000000 0 0 0
-311.957143 398.014286 1255.000000 0 0 0
-311.957143 400.404762 1255.000000 0 0 0
-311.957143 402.795238 1255.000000 0 0 0
-311.957143 405.185714 1255.000000 0 0 0
-310.714286 405.952381 1250.000000 0 0 0
-310.714286 408.333333 1250.000000 0 0 0
-310.714286 410.714286 1250.000000 0 0 0
-310.714286 413.095238 1250.000000 0 0 0
-310.714286 415.476190 1250.000000 0 0 0
-311.957143 419.528571 1255.000000 0 0 0
-311.957143 421.919048 1255.000000 0 0 0
-311.957143 424.309524 1255.000000 0 0 0
-311.957143 426.700000 1255.000000 0 0 0
-311.957143 429.090476 1255.000000 0 0 0
-310.714286 429.761905 1250.000000 0 0 0
-310.714286 432.142857 1250.000000 0 0 0
-310.714286 434.523810 1250.000000 0 0 0
-309.471429 435.157143 1245.000000 0 0 0
-309.471429 437.528571 1245.000000 0 0 0
-309.471429 439.900000 1245.000000 0 0 0
-308.477143 440.850476 1241.000000 0 0 0
-307.234286 441.428571 1236.000000 0 0 0
-307.234286 443.782857 1236.000000 0 0 0
-309.471429 449.385714 1245.000000 0 0 0
-306.240000 458.773333 1232.000000 0 0 0
-306.240000 461.120000 1232.000000 0 0 0
-306.240000 463.466667 1232.000000 0 0 0
-306.240000 465.813333 1232.000000 0 0 0
-306.240000 468.160000 1232.000000 0 0 0
-306.240000 470.506667 1232.000000 0 0 0
-306.240000 472.853333 1232.000000 0 0 0
-306.240000 475.200000 1232.000000 255 255 255
-304.997143 475.608571 1227.000000 255 255 255
-304.997143 477.945714 1227.000000 255 255 255
-304.997143 480.282857 1227.000000 255 255 255
-380.606667 -119.031429 1543.000000 0 0 0
-380.606667 -116.092381 1543.000000 0 0 0
-378.880000 -112.640000 1536.000000 0 0 0
-378.880000 -109.714286 1536.000000 0 0 0
-378.880000 -106.788571 1536.000000 0 0 0
-377.153333 -103.389524 1529.000000 0 0 0
-377.153333 -100.477143 1529.000000 0 0 0
-377.153333 -97.564762 1529.000000 0 0 0
-375.673333 -94.280952 1523.000000 0 0 0
-375.673333 -91.380000 1523.000000 0 0 0
-375.673333 -88.479048 1523.000000 0 0 0
-375.673333 -85.578095 1523.000000 0 0 0
-375.673333 -82.677143 1523.000000 0 0 0
-373.946667 -79.409524 1516.000000 0 0 0
-373.946667 -76.521905 1516.000000 0 0 0
-373.946667 -73.634286 1516.000000 0 0 0
-373.946667 -70.746667 1516.000000 0 0 0
-373.946667 -67.859048 1516.000000 0 0 0
-372.220000 -64.671429 1509.000000 0 0 0
-372.220000 -61.797143 1509.000000 0 0 0
-370.740000 -58.688571 1503.000000 0 0 0
-370.740000 -55.825714 1503.000000 0 0 0
-370.740000 -52.962857 1503.000000 0 0 0
-370.740000 -50.100000 1503.000000 0 0 0
-369.013333 -47.017143 1496.000000 0 0 0
-369.013333 -44.167619 1496.000000 0 0 0
-369.013333 -41.318095 1496.000000 0 0 0
-369.013333 -38.468571 1496.000000 0 0 0
-367.286667 -35.452381 1489.000000 0 0 0
-367.286667 -32.616190 1489.000000 0 0 0
-367.286667 -29.780000 1489.000000 0 0 0
-367.286667 -26.943810 1489.000000 0 0 0
-367.286667 -24.107619 1489.000000 0 0 0
-367.286667 -21.271429 1489.000000 0 0 0
-367.286667 -18.435238 1489.000000 0 0 0
-365.806667 -15.536190 1483.000000 0 0 0
-365.806667 -12.711429 1483.000000 0 0 0
-365.806667 -9.886667 1483.000000 0 0 0
-365.806667 -7.061905 1483.000000 0 0 0
-365.806667 -4.237143 1483.000000 0 0 0
-362.600000 -1.400000 1470.000000 0 0 0
-362.600000 1.400000 1470.000000 0 0 0
-362.600000 4.200000 1470.000000 0 0 0
-361.120000 6.971429 1464.000000 0 0 0
-361.120000 9.760000 1464.000000 0 0 0
-361.120000 12.548571 1464.000000 0 0 0
-361.120000 15.337143 1464.000000 0 0 0
-361.120000 18.125714 1464.000000 0 0 0
-361.120000 20.914286 1464.000000 0 0 0
-361.120000 23.702857 1464.000000 0 0 0
-361.120000 26.491429 1464.000000 0 0 0
-361.120000 29.280000 1464.000000 0 0 0
-359.640000 31.937143 1458.000000 0 0 0
-359.640000 34.714286 1458.000000 0 0 0
-361.120000 37.645714 1464.000000 0 0 0
-361.120000 40.434286 1464.000000 0 0 0
-359.640000 43.045714 1458.000000 0 0 0
-359.640000 45.822857 1458.000000 0 0 0
-359.640000 48.600000 1458.000000 0 0 0
-359.640000 51.377143 1458.000000 0 0 0
-358.160000 53.931429 1452.000000 0 0 0
-358.160000 56.697143 1452.000000 0 0 0
-358.160000 59.462857 1452.000000 0 0 0
-356.433333 61.928571 1445.000000 0 0 0
-354.953333 64.412381 1439.000000 0 0 0
-354.953333 67.153333 1439.000000 0 0 0
-353.473333 69.602857 1433.000000 0 0 0
-353.473333 72.332381 1433.000000 0 0 0
-353.473333 75.061905 1433.000000 0 0 0
-353.473333 77.791429 1433.000000 0 0 0
-353.473333 80.520952 1433.000000 0 0 0
-349.033333 103.766667 1415.000000 0 0 0
-349.033333 106.461905 1415.000000 0 0 0
-349.033333 109.157143 1415.000000 0 0 0
-349.033333 111.852381 1415.000000 0 0 0
-347.800000 114.142857 1410.000000 0 0 0
-347.800000 116.828571 1410.000000 0 0 0
-347.800000 119.514286 1410.000000 0 0 0
-346.320000 121.680000 1404.000000 0 0 0
-346.320000 124.354286 1404.000000 0 0 0
-346.320000 127.028571 1404.000000 0 0 0
-344.840000 129.148571 1398.000000 0 0 0
-344.840000 131.811429 1398.000000 0 0 0
-344.840000 134.474286 1398.000000 0 0 0
-343.360000 136.548571 1392.000000 0 0 0
-343.360000 139.200000 1392.000000 0 0 0
-343.360000 141.851429 1392.000000 0 0 0
-343.360000 144.502857 1392.000000 0 0 0
-343.360000 147.154286 1392.000000 0 0 0
-342.126667 149.267619 1387.000000 0 0 0
-342.126667 151.909524 1387.000000 0 0 0
-342.126667 154.551429 1387.000000 0 0 0
-343.360000 157.760000 1392.000000 0 0 0
-326.093333 280.767619 1322.000000 0 0 0
-326.093333 283.285714 1322.000000 0 0 0
-326.093333 285.803810 1322.000000 0 0 0
-324.860000 287.231429 1317.000000 0 0 0
-323.626667 288.640000 1312.000000 0 0 0
-322.393333 290.029524 1307.000000 0 0 0
-322.393333 292.519048 1307.000000 0 0 0
-322.393333 295.008571 1307.000000 0 0 0
-322.393333 297.498095 1307.000000 0 0 0
-322.393333 299.987619 1307.000000 0 0 0
-322.393333 302.477143 1307.000000 0 0 0
-322.393333 304.966667 1307.000000 0 0 0
-323.626667 308.632381 1312.000000 0 0 0
-323.626667 311.131429 1312.000000 0 0 0
-323.626667 313.630476 1312.000000 0 0 0
-322.393333 314.924762 1307.000000 0 0 0
-322.393333 317.414286 1307.000000 0 0 0
-322.393333 319.903810 1307.000000 0 0 0
-321.160000 321.160000 1302.000000 0 0 0
-321.160000 323.640000 1302.000000 0 0 0
-321.160000 326.120000 1302.000000 0 0 0
-321.160000 328.600000 1302.000000 0 0 0
-321.160000 331.080000 1302.000000 0 0 0
-321.160000 333.560000 1302.000000 0 0 0
