ply
format ascii 1.0
element vertex 1164
property float x
property float y
property float z
property uchar red
property uchar green
property uchar blue
element face 0
property list uchar int vertex_index
end_header
80.068571 128.251429 744.000000 0 0 0
80.068571 129.668571 744.000000 0 0 0
80.068571 131.085714 744.000000 0 0 0
80.283810 132.859048 746.000000 0 0 0
80.283810 134.280000 746.000000 0 0 0
80.283810 135.700952 746.000000 255 255 255
80.283810 137.121905 746.000000 0 0 0
80.283810 138.542857 746.000000 0 0 0
80.283810 139.963810 746.000000 0 0 0
80.283810 141.384762 746.000000 0 0 0
80.283810 142.805714 746.000000 0 0 0
80.283810 144.226667 746.000000 0 0 0
80.283810 145.647619 746.000000 0 0 0
80.391429 147.265714 747.000000 0 0 0
80.391429 148.688571 747.000000 0 0 0
80.391429 150.111429 747.000000 0 0 0
80.391429 151.534286 747.000000 0 0 0
80.391429 152.957143 747.000000 0 0 0
80.391429 154.380000 747.000000 0 0 0
80.391429 155.802857 747.000000 0 0 0
80.391429 157.225714 747.000000 0 0 0
80.606667 159.073333 749.000000 0 0 0
80.606667 160.500000 749.000000 0 0 0
80.606667 161.926667 749.000000 0 0 0
80.714286 163.571429 750.000000 0 0 0
80.714286 165.000000 750.000000 0 0 0
80.714286 166.428571 750.000000 0 0 0
80.714286 167.857143 750.000000 0 0 0
80.714286 169.285714 750.000000 0 0 0
80.714286 170.714286 750.000000 0 0 0
80.929524 172.601905 752.000000 0 0 0
80.929524 174.034286 752.000000 0 0 0
80.929524 175.466667 752.000000 0 0 0
80.929524 176.899048 752.000000 0 0 0
80.929524 178.331429 752.000000 0 0 0
80.929524 179.763810 752.000000 0 0 0
80.929524 181.196190 752.000000 0 0 0
80.929524 182.628571 752.000000 0 0 0
80.929524 184.060952 752.000000 0 0 0
80.929524 185.493333 752.000000 0 0 0
80.929524 186.925714 752.000000 0 0 0
81.144762 188.859048 754.000000 0 0 0
81.144762 190.295238 754.000000 0 0 0
80.929524 191.222857 752.000000 0 0 0
80.929524 192.655238 752.000000 0 0 0
81.144762 194.603810 754.000000 0 0 0
81.144762 196.040000 754.000000 0 0 0
81.144762 197.476190 754.000000 0 0 0
81.144762 198.912381 754.000000 0 0 0
81.144762 200.348571 754.000000 0 0 0
81.252381 202.052381 755.000000 0 0 0
81.467619 204.029524 757.000000 0 0 0
81.467619 205.471429 757.000000 0 0 0
81.467619 206.913333 757.000000 255 255 255
81.467619 208.355238 757.000000 0 0 0
81.467619 209.797143 757.000000 0 0 0
81.467619 211.239048 757.000000 0 0 0
81.467619 212.680952 757.000000 0 0 0
81.467619 214.122857 757.000000 0 0 0
81.467619 215.564762 757.000000 0 0 0
81.682857 217.580000 759.000000 0 0 0
81.682857 219.025714 759.000000 0 0 0
81.682857 220.471429 759.000000 0 0 0
81.682857 221.917143 759.000000 0 0 0
81.682857 223.362857 759.000000 0 0 0
81.682857 224.808571 759.000000 0 0 0
81.682857 226.254286 759.000000 0 0 0
81.682857 227.700000 759.000000 0 0 0
81.682857 229.145714 759.000000 0 0 0
81.682857 230.591429 759.000000 0 0 0
81.682857 232.037143 759.000000 0 0 0
81.682857 233.482857 759.000000 0 0 0
81.898095 235.547619 761.000000 0 0 0
81.898095 236.997143 761.000000 0 0 0
81.898095 238.446667 761.000000 0 0 0
82.005714 240.211429 762.000000 0 0 0
82.220952 242.297143 764.000000 0 0 0
82.220952 243.752381 764.000000 0 0 0
82.220952 245.207619 764.000000 0 0 0
82.436190 247.308571 766.000000 0 0 0
82.543810 249.092381 767.000000 0 0 0
82.543810 250.553333 767.000000 0 0 0
82.543810 252.014286 767.000000 0 0 0
82.436190 253.144762 766.000000 0 0 0
82.436190 254.603810 766.000000 0 0 0
82.220952 255.394286 764.000000 255 255 255
81.898095 255.840952 761.000000 255 255 255
81.467619 255.938095 757.000000 0 0 0
81.252381 256.700000 755.000000 255 255 255
80.929524 257.112381 752.000000 0 0 0
80.283810 256.481905 746.000000 0 0 0
79.853333 256.520000 742.000000 0 0 0
79.745714 257.585714 741.000000 255 255 255
79.530476 258.298095 739.000000 255 255 255
79.422857 259.354286 738.000000 255 255 255
78.992381 259.346667 734.000000 255 255 255
78.346667 258.613333 728.000000 255 255 255
78.239048 259.642857 727.000000 255 255 255
78.023810 260.309524 725.000000 255 255 255
78.023810 261.690476 725.000000 255 255 255
77.700952 261.982857 722.000000 255 255 255
77.162857 261.534286 717.000000 255 255 255
76.840000 261.800000 714.000000 255 255 255
76.517143 262.054286 711.000000 255 255 255
76.194286 262.297143 708.000000 255 255 255
76.086667 263.273333 707.000000 255 255 255
75.979048 264.245714 706.000000 255 255 255
75.763810 264.838095 704.000000 255 255 255
75.656190 265.800952 703.000000 0 0 0
75.440952 266.380000 701.000000 0 0 0
75.440952 267.715238 701.000000 0 0 0
78.200000 -132.600000 714.000000 255 255 255
78.090476 -131.056190 713.000000 255 255 255
77.871429 -129.334286 711.000000 255 255 255
77.871429 -127.980000 711.000000 255 255 255
77.871429 -126.625714 711.000000 255 255 255
77.871429 -125.271429 711.000000 255 255 255
77.761905 -123.742857 710.000000 255 255 255
77.761905 -122.390476 710.000000 255 255 255
77.761905 -121.038095 710.000000 255 255 255
77.761905 -119.685714 710.000000 255 255 255
77.761905 -118.333333 710.000000 255 255 255
77.761905 -116.980952 710.000000 0 0 0
77.761905 -115.628571 710.000000 0 0 0
77.761905 -114.276190 710.000000 0 0 0
77.761905 -112.923810 710.000000 0 0 0
77.761905 -111.571429 710.000000 0 0 0
77.761905 -110.219048 710.000000 0 0 0
77.871429 -109.020000 711.000000 0 0 0
77.871429 -107.665714 711.000000 0 0 0
78.090476 -106.610476 713.000000 0 0 0
78.090476 -105.252381 713.000000 255 255 255
78.090476 -103.894286 713.000000 255 255 255
78.090476 -102.536190 713.000000 255 255 255
78.090476 -101.178095 713.000000 255 255 255
78.090476 -99.820000 713.000000 255 255 255
78.090476 -98.461905 713.000000 255 255 255
78.090476 -97.103810 713.000000 255 255 255
78.090476 -95.745714 713.000000 255 255 255
78.090476 -94.387619 713.000000 255 255 255
78.200000 -93.160000 714.000000 255 255 255
78.200000 -91.800000 714.000000 255 255 255
78.200000 -90.440000 714.000000 255 255 255
78.419048 -89.329524 716.000000 0 0 0
78.419048 -87.965714 716.000000 0 0 0
78.200000 -86.360000 714.000000 0 0 0
78.200000 -85.000000 714.000000 0 0 0
78.200000 -83.640000 714.000000 0 0 0
78.200000 -82.280000 714.000000 0 0 0
78.200000 -80.920000 714.000000 0 0 0
78.419048 -79.782857 716.000000 0 0 0
78.419048 -78.419048 716.000000 255 255 255
78.419048 -77.055238 716.000000 255 255 255
78.419048 -75.691429 716.000000 255 255 255
78.528571 -74.431429 717.000000 255 255 255
78.528571 -73.065714 717.000000 255 255 255
78.528571 -71.700000 717.000000 255 255 255
78.528571 -70.334286 717.000000 255 255 255
78.528571 -68.968571 717.000000 0 0 0
78.528571 -67.602857 717.000000 0 0 0
78.528571 -66.237143 717.000000 0 0 0
78.528571 -64.871429 717.000000 255 255 255
78.528571 -63.505714 717.000000 255 255 255
78.747619 -62.313333 719.000000 255 255 255
78.528571 -60.774286 717.000000 255 255 255
78.528571 -59.408571 717.000000 255 255 255
78.528571 -58.042857 717.000000 255 255 255
78.528571 -56.677143 717.000000 255 255 255
78.528571 -55.311429 717.000000 255 255 255
78.528571 -53.945714 717.000000 255 255 255
78.528571 -52.580000 717.000000 255 255 255
78.747619 -51.357143 719.000000 255 255 255
78.747619 -49.987619 719.000000 255 255 255
78.747619 -48.618095 719.000000 0 0 0
78.747619 -47.248571 719.000000 0 0 0
78.747619 -45.879048 719.000000 0 0 0
78.857143 -44.571429 720.000000 0 0 0
78.857143 -43.200000 720.000000 255 255 255
78.857143 -41.828571 720.000000 255 255 255
78.857143 -40.457143 720.000000 255 255 255
78.857143 -39.085714 720.000000 255 255 255
78.857143 -37.714286 720.000000 255 255 255
78.857143 -36.342857 720.000000 255 255 255
78.857143 -34.971429 720.000000 255 255 255
79.076190 -33.693333 722.000000 255 255 255
79.076190 -32.318095 722.000000 255 255 255
79.076190 -30.942857 722.000000 255 255 255
79.076190 -29.567619 722.000000 255 255 255
79.076190 -28.192381 722.000000 255 255 255
79.076190 -26.817143 722.000000 255 255 255
79.076190 -25.441905 722.000000 255 255 255
79.076190 -24.066667 722.000000 255 255 255
79.076190 -22.691429 722.000000 255 255 255
79.076190 -21.316190 722.000000 255 255 255
79.076190 -19.940952 722.000000 255 255 255
79.185714 -18.591429 723.000000 255 255 255
79.185714 -17.214286 723.000000 255 255 255
79.185714 -15.837143 723.000000 255 255 255
79.185714 -14.460000 723.000000 255 255 255
79.185714 -13.082857 723.000000 255 255 255
79.404762 -11.738095 725.000000 255 255 255
79.404762 -10.357143 725.000000 0 0 0
79.404762 -8.976190 725.000000 0 0 0
79.404762 -7.595238 725.000000 0 0 0
79.404762 -6.214286 725.000000 0 0 0
79.404762 -4.833333 725.000000 0 0 0
79.404762 -3.452381 725.000000 0 0 0
79.404762 -2.071429 725.000000 0 0 0
79.404762 -0.690476 725.000000 0 0 0
79.404762 0.690476 725.000000 255 255 255
79.404762 2.071429 725.000000 255 255 255
79.404762 3.452381 725.000000 255 255 255
79.404762 4.833333 725.000000 255 255 255
79.404762 6.214286 725.000000 255 255 255
79.404762 7.595238 725.000000 255 255 255
79.623810 9.000952 727.000000 255 255 255
79.623810 10.385714 727.000000 255 255 255
79.623810 11.770476 727.000000 255 255 255
79.623810 13.155238 727.000000 255 255 255
79.623810 14.540000 727.000000 255 255 255
79.733333 15.946667 728.000000 255 255 255
79.733333 17.333333 728.000000 255 255 255
79.733333 18.720000 728.000000 255 255 255
79.733333 20.106667 728.000000 255 255 255
79.733333 21.493333 728.000000 255 255 255
79.733333 22.880000 728.000000 255 255 255
79.733333 24.266667 728.000000 255 255 255
79.733333 25.653333 728.000000 255 255 255
79.733333 27.040000 728.000000 255 255 255
79.733333 28.426667 728.000000 255 255 255
79.733333 29.813333 728.000000 255 255 255
79.952381 31.285714 730.000000 255 255 255
79.952381 32.676190 730.000000 255 255 255
80.061905 34.113333 731.000000 255 255 255
80.061905 35.505714 731.000000 255 255 255
80.061905 36.898095 731.000000 255 255 255
80.061905 38.290476 731.000000 255 255 255
80.061905 39.682857 731.000000 255 255 255
80.061905 41.075238 731.000000 255 255 255
80.061905 42.467619 731.000000 255 255 255
80.061905 43.860000 731.000000 255 255 255
80.061905 45.252381 731.000000 255 255 255
80.061905 46.644762 731.000000 255 255 255
80.061905 48.037143 731.000000 255 255 255
80.280952 49.564762 733.000000 255 255 255
80.280952 50.960952 733.000000 255 255 255
80.280952 52.357143 733.000000 255 255 255
80.280952 53.753333 733.000000 255 255 255
80.280952 55.149524 733.000000 255 255 255
80.280952 56.545714 733.000000 255 255 255
80.280952 57.941905 733.000000 255 255 255
80.280952 59.338095 733.000000 255 255 255
80.280952 60.734286 733.000000 255 255 255
80.390476 62.215238 734.000000 255 255 255
80.390476 63.613333 734.000000 255 255 255
80.390476 65.011429 734.000000 255 255 255
80.609524 66.590476 736.000000 255 255 255
80.609524 67.992381 736.000000 255 255 255
80.609524 69.394286 736.000000 255 255 255
80.609524 70.796190 736.000000 255 255 255
80.609524 72.198095 736.000000 255 255 255
80.609524 73.600000 736.000000 255 255 255
80.609524 75.001905 736.000000 255 255 255
80.609524 76.403810 736.000000 255 255 255
80.828571 78.017143 738.000000 255 255 255
80.828571 79.422857 738.000000 255 255 255
80.828571 80.828571 738.000000 255 255 255
80.828571 82.234286 738.000000 255 255 255
80.828571 83.640000 738.000000 255 255 255
80.828571 85.045714 738.000000 255 255 255
80.938095 86.568571 739.000000 255 255 255
80.938095 87.976190 739.000000 255 255 255
80.938095 89.383810 739.000000 255 255 255
80.938095 90.791429 739.000000 255 255 255
80.938095 92.199048 739.000000 255 255 255
80.938095 93.606667 739.000000 255 255 255
80.938095 95.014286 739.000000 255 255 255
80.938095 96.421905 739.000000 255 255 255
80.938095 97.829524 739.000000 255 255 255
80.938095 99.237143 739.000000 255 255 255
80.938095 100.644762 739.000000 255 255 255
80.938095 102.052381 739.000000 255 255 255
80.938095 103.460000 739.000000 255 255 255
80.938095 104.867619 739.000000 255 255 255
80.938095 106.275238 739.000000 255 255 255
80.938095 107.682857 739.000000 255 255 255
80.938095 109.090476 739.000000 255 255 255
80.938095 110.498095 739.000000 255 255 255
81.157143 112.208571 741.000000 255 255 255
81.266667 113.773333 742.000000 255 255 255
81.266667 115.186667 742.000000 255 255 255
81.266667 116.600000 742.000000 255 255 255
81.485714 118.331429 744.000000 255 255 255
81.485714 119.748571 744.000000 255 255 255
81.485714 121.165714 744.000000 0 0 0
81.485714 122.582857 744.000000 0 0 0
81.485714 124.000000 744.000000 0 0 0
81.485714 125.417143 744.000000 0 0 0
81.485714 126.834286 744.000000 0 0 0
81.485714 128.251429 744.000000 0 0 0
81.485714 129.668571 744.000000 0 0 0
81.485714 131.085714 744.000000 0 0 0
81.704762 132.859048 746.000000 0 0 0
81.704762 134.280000 746.000000 0 0 0
81.704762 135.700952 746.000000 0 0 0
81.704762 137.121905 746.000000 0 0 0
81.704762 138.542857 746.000000 0 0 0
81.704762 139.963810 746.000000 0 0 0
81.814286 141.574286 747.000000 0 0 0
81.814286 142.997143 747.000000 0 0 0
81.814286 144.420000 747.000000 0 0 0
81.814286 145.842857 747.000000 0 0 0
81.814286 147.265714 747.000000 0 0 0
81.814286 148.688571 747.000000 0 0 0
81.814286 150.111429 747.000000 0 0 0
81.814286 151.534286 747.000000 0 0 0
81.814286 152.957143 747.000000 0 0 0
81.814286 154.380000 747.000000 0 0 0
81.814286 155.802857 747.000000 0 0 0
81.814286 157.225714 747.000000 0 0 0
82.033333 159.073333 749.000000 0 0 0
82.033333 160.500000 749.000000 0 0 0
82.033333 161.926667 749.000000 0 0 0
82.142857 163.571429 750.000000 0 0 0
82.142857 165.000000 750.000000 0 0 0
82.142857 166.428571 750.000000 0 0 0
82.142857 167.857143 750.000000 0 0 0
82.142857 169.285714 750.000000 0 0 0
82.142857 170.714286 750.000000 0 0 0
82.361905 172.601905 752.000000 0 0 0
82.361905 174.034286 752.000000 0 0 0
82.361905 175.466667 752.000000 0 0 0
82.361905 176.899048 752.000000 0 0 0
82.361905 178.331429 752.000000 0 0 0
82.361905 179.763810 752.000000 0 0 0
82.361905 181.196190 752.000000 0 0 0
82.361905 182.628571 752.000000 0 0 0
82.361905 184.060952 752.000000 0 0 0
82.361905 185.493333 752.000000 0 0 0
82.580952 187.422857 754.000000 0 0 0
82.580952 188.859048 754.000000 0 0 0
82.580952 190.295238 754.000000 0 0 0
82.580952 191.731429 754.000000 0 0 0
82.580952 193.167619 754.000000 0 0 0
82.580952 194.603810 754.000000 0 0 0
82.580952 196.040000 754.000000 0 0 0
82.580952 197.476190 754.000000 0 0 0
82.580952 198.912381 754.000000 0 0 0
82.690476 200.614286 755.000000 0 0 0
82.909524 202.587619 757.000000 0 0 0
82.909524 204.029524 757.000000 0 0 0
82.909524 205.471429 757.000000 0 0 0
82.909524 206.913333 757.000000 0 0 0
82.909524 208.355238 757.000000 0 0 0
82.909524 209.797143 757.000000 0 0 0
82.909524 211.239048 757.000000 0 0 0
82.909524 212.680952 757.000000 0 0 0
82.909524 214.122857 757.000000 0 0 0
82.909524 215.564762 757.000000 0 0 0
82.909524 217.006667 757.000000 0 0 0
83.128571 219.025714 759.000000 0 0 0
83.128571 220.471429 759.000000 0 0 0
83.128571 221.917143 759.000000 0 0 0
83.128571 223.362857 759.000000 0 0 0
83.128571 224.808571 759.000000 0 0 0
83.128571 226.254286 759.000000 0 0 0
83.128571 227.700000 759.000000 0 0 0
83.128571 229.145714 759.000000 0 0 0
83.128571 230.591429 759.000000 0 0 0
83.128571 232.037143 759.000000 0 0 0
83.128571 233.482857 759.000000 0 0 0
83.347619 235.547619 761.000000 0 0 0
83.347619 236.997143 761.000000 0 0 0
83.347619 238.446667 761.000000 0 0 0
83.457143 240.211429 762.000000 0 0 0
83.676190 242.297143 764.000000 0 0 0
83.676190 243.752381 764.000000 0 0 0
83.895238 245.849524 766.000000 0 0 0
83.895238 247.308571 766.000000 0 0 0
84.004762 249.092381 767.000000 0 0 0
84.004762 250.553333 767.000000 0 0 0
84.004762 252.014286 767.000000 0 0 0
84.004762 253.475238 767.000000 255 255 255
83.895238 254.603810 766.000000 0 0 0
83.676190 255.394286 764.000000 255 255 255
83.347619 255.840952 761.000000 255 255 255
82.909524 255.938095 757.000000 0 0 0
82.580952 256.360000 754.000000 255 255 255
81.814286 255.402857 747.000000 255 255 255
81.704762 256.481905 746.000000 255 255 255
81.485714 257.211429 744.000000 0 0 0
81.157143 257.585714 741.000000 255 255 255
81.157143 258.997143 741.000000 255 255 255
80.609524 258.651429 736.000000 255 255 255
80.280952 258.993333 733.000000 255 255 255
79.733333 258.613333 728.000000 255 255 255
79.623810 259.642857 727.000000 255 255 255
79.404762 260.309524 725.000000 255 255 255
79.404762 261.690476 725.000000 255 255 255
79.076190 261.982857 722.000000 255 255 255
78.528571 261.534286 717.000000 255 255 255
78.200000 261.800000 714.000000 255 255 255
77.871429 262.054286 711.000000 255 255 255
77.542857 262.297143 708.000000 255 255 255
77.433333 263.273333 707.000000 255 255 255
77.323810 264.245714 706.000000 255 255 255
77.104762 264.838095 704.000000 255 255 255
76.995238 265.800952 703.000000 0 0 0
76.776190 266.380000 701.000000 0 0 0
76.666667 267.333333 700.000000 0 0 0
79.448571 -132.414286 713.000000 255 255 255
79.448571 -131.056190 713.000000 255 255 255
79.225714 -129.334286 711.000000 255 255 255
79.114286 -127.800000 710.000000 255 255 255
79.114286 -126.447619 710.000000 255 255 255
79.114286 -125.095238 710.000000 255 255 255
79.114286 -123.742857 710.000000 255 255 255
79.114286 -122.390476 710.000000 255 255 255
79.114286 -121.038095 710.000000 255 255 255
79.114286 -119.685714 710.000000 255 255 255
79.114286 -118.333333 710.000000 255 255 255
79.114286 -116.980952 710.000000 0 0 0
79.114286 -115.628571 710.000000 0 0 0
79.114286 -114.276190 710.000000 0 0 0
79.225714 -113.082857 711.000000 0 0 0
79.225714 -111.728571 711.000000 0 0 0
79.225714 -110.374286 711.000000 0 0 0
79.448571 -109.326667 713.000000 0 0 0
79.448571 -107.968571 713.000000 0 0 0
79.448571 -106.610476 713.000000 0 0 0
79.448571 -105.252381 713.000000 0 0 0
79.448571 -103.894286 713.000000 0 0 0
79.448571 -102.536190 713.000000 0 0 0
79.448571 -101.178095 713.000000 0 0 0
79.448571 -99.820000 713.000000 0 0 0
79.448571 -98.461905 713.000000 0 0 0
79.448571 -97.103810 713.000000 0 0 0
79.448571 -95.745714 713.000000 0 0 0
79.448571 -94.387619 713.000000 0 0 0
79.448571 -93.029524 713.000000 0 0 0
79.560000 -91.800000 714.000000 0 0 0
79.560000 -90.440000 714.000000 0 0 0
79.782857 -89.329524 716.000000 0 0 0
79.782857 -87.965714 716.000000 0 0 0
79.560000 -86.360000 714.000000 0 0 0
79.560000 -85.000000 714.000000 0 0 0
79.560000 -83.640000 714.000000 0 0 0
79.560000 -82.280000 714.000000 0 0 0
79.782857 -81.146667 716.000000 0 0 0
79.782857 -79.782857 716.000000 0 0 0
79.782857 -78.419048 716.000000 255 255 255
79.782857 -77.055238 716.000000 255 255 255
79.782857 -75.691429 716.000000 255 255 255
79.782857 -74.327619 716.000000 255 255 255
79.782857 -72.963810 716.000000 255 255 255
79.782857 -71.600000 716.000000 255 255 255
79.782857 -70.236190 716.000000 255 255 255
79.782857 -68.872381 716.000000 0 0 0
79.782857 -67.508571 716.000000 0 0 0
79.782857 -66.144762 716.000000 0 0 0
79.894286 -64.871429 717.000000 255 255 255
79.894286 -63.505714 717.000000 255 255 255
79.894286 -62.140000 717.000000 255 255 255
79.894286 -60.774286 717.000000 255 255 255
79.894286 -59.408571 717.000000 255 255 255
79.894286 -58.042857 717.000000 255 255 255
79.894286 -56.677143 717.000000 255 255 255
79.894286 -55.311429 717.000000 255 255 255
80.117143 -54.096190 719.000000 255 255 255
80.117143 -52.726667 719.000000 255 255 255
80.117143 -51.357143 719.000000 255 255 255
80.117143 -49.987619 719.000000 255 255 255
80.117143 -48.618095 719.000000 0 0 0
80.117143 -47.248571 719.000000 0 0 0
80.117143 -45.879048 719.000000 0 0 0
80.228571 -44.571429 720.000000 0 0 0
80.228571 -43.200000 720.000000 255 255 255
80.228571 -41.828571 720.000000 255 255 255
80.228571 -40.457143 720.000000 255 255 255
80.228571 -39.085714 720.000000 255 255 255
80.228571 -37.714286 720.000000 255 255 255
80.228571 -36.342857 720.000000 255 255 255
80.228571 -34.971429 720.000000 255 255 255
80.451429 -33.693333 722.000000 255 255 255
80.451429 -32.318095 722.000000 255 255 255
80.451429 -30.942857 722.000000 255 255 255
80.451429 -29.567619 722.000000 255 255 255
80.451429 -28.192381 722.000000 255 255 255
80.451429 -26.817143 722.000000 255 255 255
80.451429 -25.441905 722.000000 255 255 255
80.451429 -24.066667 722.000000 255 255 255
80.451429 -22.691429 722.000000 255 255 255
80.451429 -21.316190 722.000000 255 255 255
80.451429 -19.940952 722.000000 255 255 255
80.562857 -18.591429 723.000000 255 255 255
80.562857 -17.214286 723.000000 255 255 255
80.562857 -15.837143 723.000000 255 255 255
80.562857 -14.460000 723.000000 255 255 255
80.785714 -13.119048 725.000000 255 255 255
80.785714 -11.738095 725.000000 255 255 255
80.785714 -10.357143 725.000000 0 0 0
80.785714 -8.976190 725.000000 0 0 0
80.785714 -7.595238 725.000000 0 0 0
80.785714 -6.214286 725.000000 0 0 0
80.785714 -4.833333 725.000000 0 0 0
81.008571 -3.461905 727.000000 0 0 0
80.785714 -2.071429 725.000000 0 0 0
80.785714 -0.690476 725.000000 0 0 0
80.785714 0.690476 725.000000 255 255 255
80.785714 2.071429 725.000000 255 255 255
80.785714 3.452381 725.000000 255 255 255
80.785714 4.833333 725.000000 255 255 255
80.785714 6.214286 725.000000 255 255 255
80.785714 7.595238 725.000000 255 255 255
81.008571 9.000952 727.000000 255 255 255
81.008571 10.385714 727.000000 255 255 255
81.008571 11.770476 727.000000 255 255 255
81.008571 13.155238 727.000000 255 255 255
81.008571 14.540000 727.000000 255 255 255
81.120000 15.946667 728.000000 255 255 255
81.120000 17.333333 728.000000 255 255 255
81.120000 18.720000 728.000000 255 255 255
81.120000 20.106667 728.000000 255 255 255
81.120000 21.493333 728.000000 255 255 255
81.120000 22.880000 728.000000 255 255 255
81.120000 24.266667 728.000000 255 255 255
81.120000 25.653333 728.000000 255 255 255
81.120000 27.040000 728.000000 255 255 255
81.120000 28.426667 728.000000 255 255 255
81.342857 29.895238 730.000000 255 255 255
81.342857 31.285714 730.000000 255 255 255
81.342857 32.676190 730.000000 255 255 255
81.454286 34.113333 731.000000 255 255 255
81.454286 35.505714 731.000000 255 255 255
81.454286 36.898095 731.000000 255 255 255
81.454286 38.290476 731.000000 255 255 255
81.454286 39.682857 731.000000 255 255 255
81.454286 41.075238 731.000000 255 255 255
81.454286 42.467619 731.000000 255 255 255
81.454286 43.860000 731.000000 255 255 255
81.677143 45.376190 733.000000 255 255 255
81.454286 46.644762 731.000000 255 255 255
81.454286 48.037143 731.000000 255 255 255
81.677143 49.564762 733.000000 255 255 255
81.677143 50.960952 733.000000 255 255 255
81.677143 52.357143 733.000000 255 255 255
81.677143 53.753333 733.000000 255 255 255
81.677143 55.149524 733.000000 255 255 255
81.677143 56.545714 733.000000 255 255 255
81.677143 57.941905 733.000000 255 255 255
81.677143 59.338095 733.000000 255 255 255
81.677143 60.734286 733.000000 255 255 255
81.677143 62.130476 733.000000 255 255 255
81.788571 63.613333 734.000000 255 255 255
81.788571 65.011429 734.000000 255 255 255
81.788571 66.409524 734.000000 255 255 255
82.011429 67.992381 736.000000 255 255 255
82.011429 69.394286 736.000000 255 255 255
82.011429 70.796190 736.000000 255 255 255
82.011429 72.198095 736.000000 255 255 255
82.234286 73.800000 738.000000 255 255 255
82.234286 75.205714 738.000000 255 255 255
82.234286 76.611429 738.000000 255 255 255
82.234286 78.017143 738.000000 255 255 255
82.234286 79.422857 738.000000 255 255 255
82.234286 80.828571 738.000000 255 255 255
82.234286 82.234286 738.000000 255 255 255
82.234286 83.640000 738.000000 255 255 255
82.234286 85.045714 738.000000 255 255 255
82.345714 86.568571 739.000000 255 255 255
82.345714 87.976190 739.000000 255 255 255
82.345714 89.383810 739.000000 255 255 255
82.345714 90.791429 739.000000 255 255 255
82.345714 92.199048 739.000000 255 255 255
82.345714 93.606667 739.000000 255 255 255
82.345714 95.014286 739.000000 255 255 255
82.345714 96.421905 739.000000 255 255 255
82.345714 97.829524 739.000000 255 255 255
82.345714 99.237143 739.000000 255 255 255
82.345714 100.644762 739.000000 255 255 255
82.345714 102.052381 739.000000 255 255 255
82.345714 103.460000 739.000000 255 255 255
82.345714 104.867619 739.000000 255 255 255
82.345714 106.275238 739.000000 255 255 255
82.345714 107.682857 739.000000 255 255 255
82.568571 109.385714 741.000000 255 255 255
82.568571 110.797143 741.000000 255 255 255
82.680000 112.360000 742.000000 255 255 255
82.680000 113.773333 742.000000 255 255 255
82.902857 115.497143 744.000000 255 255 255
82.902857 116.914286 744.000000 255 255 255
82.902857 118.331429 744.000000 255 255 255
82.902857 119.748571 744.000000 255 255 255
82.902857 121.165714 744.000000 0 0 0
82.902857 122.582857 744.000000 0 0 0
82.902857 124.000000 744.000000 0 0 0
82.902857 125.417143 744.000000 0 0 0
82.902857 126.834286 744.000000 0 0 0
82.902857 128.251429 744.000000 0 0 0
82.902857 129.668571 744.000000 0 0 0
83.125714 131.438095 746.000000 0 0 0
83.125714 132.859048 746.000000 0 0 0
83.125714 134.280000 746.000000 0 0 0
83.125714 135.700952 746.000000 0 0 0
83.125714 137.121905 746.000000 0 0 0
83.237143 138.728571 747.000000 0 0 0
83.237143 140.151429 747.000000 0 0 0
83.237143 141.574286 747.000000 0 0 0
83.237143 142.997143 747.000000 0 0 0
83.237143 144.420000 747.000000 0 0 0
83.237143 145.842857 747.000000 0 0 0
83.237143 147.265714 747.000000 0 0 0
83.237143 148.688571 747.000000 0 0 0
83.237143 150.111429 747.000000 0 0 0
83.237143 151.534286 747.000000 0 0 0
83.237143 152.957143 747.000000 0 0 0
83.237143 154.380000 747.000000 0 0 0
83.460000 156.220000 749.000000 0 0 0
83.460000 157.646667 749.000000 0 0 0
83.460000 159.073333 749.000000 0 0 0
83.460000 160.500000 749.000000 0 0 0
83.571429 162.142857 750.000000 0 0 0
83.571429 163.571429 750.000000 0 0 0
83.571429 165.000000 750.000000 0 0 0
83.571429 166.428571 750.000000 0 0 0
83.794286 168.304762 752.000000 0 0 0
83.794286 169.737143 752.000000 0 0 0
83.794286 171.169524 752.000000 0 0 0
83.794286 172.601905 752.000000 0 0 0
83.794286 174.034286 752.000000 0 0 0
83.794286 175.466667 752.000000 0 0 0
83.794286 176.899048 752.000000 0 0 0
83.794286 178.331429 752.000000 0 0 0
83.794286 179.763810 752.000000 0 0 0
83.794286 181.196190 752.000000 0 0 0
83.794286 182.628571 752.000000 0 0 0
83.794286 184.060952 752.000000 0 0 0
83.794286 185.493333 752.000000 0 0 0
83.794286 186.925714 752.000000 0 0 0
84.017143 188.859048 754.000000 0 0 0
84.017143 190.295238 754.000000 0 0 0
84.017143 191.731429 754.000000 0 0 0
84.017143 193.167619 754.000000 0 0 0
84.017143 194.603810 754.000000 0 0 0
84.017143 196.040000 754.000000 0 0 0
84.128571 197.738095 755.000000 0 0 0
84.128571 199.176190 755.000000 0 0 0
84.128571 200.614286 755.000000 0 0 0
84.351429 202.587619 757.000000 0 0 0
84.351429 204.029524 757.000000 0 0 0
84.351429 205.471429 757.000000 0 0 0
84.351429 206.913333 757.000000 0 0 0
84.351429 208.355238 757.000000 0 0 0
84.351429 209.797143 757.000000 0 0 0
84.351429 211.239048 757.000000 0 0 0
84.351429 212.680952 757.000000 0 0 0
84.351429 214.122857 757.000000 0 0 0
84.351429 215.564762 757.000000 0 0 0
84.351429 217.006667 757.000000 0 0 0
84.574286 219.025714 759.000000 0 0 0
84.574286 220.471429 759.000000 0 0 0
84.574286 221.917143 759.000000 0 0 0
84.574286 223.362857 759.000000 0 0 0
84.574286 224.808571 759.000000 0 0 0
84.574286 226.254286 759.000000 0 0 0
84.574286 227.700000 759.000000 0 0 0
84.574286 229.145714 759.000000 0 0 0
84.574286 230.591429 759.000000 0 0 0
84.574286 232.037143 759.000000 0 0 0
84.574286 233.482857 759.000000 0 0 0
84.797143 235.547619 761.000000 0 0 0
84.797143 236.997143 761.000000 0 0 0
84.797143 238.446667 761.000000 0 0 0
84.908571 240.211429 762.000000 0 0 0
85.131429 242.297143 764.000000 0 0 0
85.131429 243.752381 764.000000 0 0 0
85.354286 245.849524 766.000000 0 0 0
85.354286 247.308571 766.000000 0 0 0
85.465714 249.092381 767.000000 0 0 0
85.465714 250.553333 767.000000 0 0 0
85.465714 252.014286 767.000000 0 0 0
85.465714 253.475238 767.000000 255 255 255
85.354286 254.603810 766.000000 0 0 0
85.131429 255.394286 764.000000 0 0 0
84.797143 255.840952 761.000000 255 255 255
84.351429 255.938095 757.000000 0 0 0
83.794286 255.680000 752.000000 0 0 0
83.237143 255.402857 747.000000 0 0 0
83.125714 256.481905 746.000000 0 0 0
82.902857 257.211429 744.000000 0 0 0
82.680000 257.933333 742.000000 0 0 0
82.680000 259.346667 742.000000 0 0 0
81.788571 257.948571 734.000000 255 255 255
81.454286 258.286667 731.000000 255 255 255
81.120000 258.613333 728.000000 255 255 255
81.008571 259.642857 727.000000 255 255 255
81.008571 261.027619 727.000000 255 255 255
80.785714 261.690476 725.000000 255 255 255
80.562857 262.345714 723.000000 255 255 255
80.117143 262.263810 719.000000 255 255 255
79.560000 261.800000 714.000000 255 255 255
79.225714 262.054286 711.000000 255 255 255
78.891429 262.297143 708.000000 255 255 255
78.780000 263.273333 707.000000 255 255 255
78.668571 264.245714 706.000000 255 255 255
78.334286 264.461905 703.000000 255 255 255
78.111429 265.044762 701.000000 255 255 255
78.000000 266.000000 700.000000 0 0 0
78.000000 267.333333 700.000000 0 0 0
80.806667 -132.414286 713.000000 255 255 255
80.806667 -131.056190 713.000000 255 255 255
80.580000 -129.334286 711.000000 255 255 255
80.466667 -127.800000 710.000000 255 255 255
80.466667 -126.447619 710.000000 255 255 255
80.466667 -125.095238 710.000000 255 255 255
80.466667 -123.742857 710.000000 255 255 255
80.466667 -122.390476 710.000000 255 255 255
80.466667 -121.038095 710.000000 255 255 255
80.466667 -119.685714 710.000000 255 255 255
80.466667 -118.333333 710.000000 255 255 255
80.466667 -116.980952 710.000000 0 0 0
80.466667 -115.628571 710.000000 0 0 0
80.580000 -114.437143 711.000000 0 0 0
80.580000 -113.082857 711.000000 0 0 0
80.580000 -111.728571 711.000000 0 0 0
80.580000 -110.374286 711.000000 0 0 0
80.806667 -109.326667 713.000000 0 0 0
80.806667 -107.968571 713.000000 0 0 0
80.806667 -106.610476 713.000000 0 0 0
80.806667 -105.252381 713.000000 0 0 0
80.806667 -103.894286 713.000000 0 0 0
80.806667 -102.536190 713.000000 0 0 0
80.806667 -101.178095 713.000000 0 0 0
80.580000 -99.540000 711.000000 0 0 0
80.580000 -98.185714 711.000000 0 0 0
80.806667 -97.103810 713.000000 0 0 0
80.806667 -95.745714 713.000000 0 0 0
80.806667 -94.387619 713.000000 0 0 0
80.806667 -93.029524 713.000000 0 0 0
80.920000 -91.800000 714.000000 0 0 0
80.920000 -90.440000 714.000000 0 0 0
81.146667 -89.329524 716.000000 0 0 0
81.146667 -87.965714 716.000000 0 0 0
81.146667 -86.601905 716.000000 0 0 0
81.146667 -85.238095 716.000000 0 0 0
81.146667 -83.874286 716.000000 0 0 0
81.146667 -82.510476 716.000000 0 0 0
81.146667 -81.146667 716.000000 0 0 0
81.146667 -79.782857 716.000000 0 0 0
81.146667 -78.419048 716.000000 255 255 255
81.146667 -77.055238 716.000000 255 255 255
81.146667 -75.691429 716.000000 255 255 255
81.146667 -74.327619 716.000000 255 255 255
81.146667 -72.963810 716.000000 255 255 255
81.146667 -71.600000 716.000000 255 255 255
81.146667 -70.236190 716.000000 255 255 255
81.146667 -68.872381 716.000000 255 255 255
81.146667 -67.508571 716.000000 0 0 0
81.146667 -66.144762 716.000000 0 0 0
81.260000 -64.871429 717.000000 255 255 255
81.260000 -63.505714 717.000000 255 255 255
81.260000 -62.140000 717.000000 255 255 255
81.260000 -60.774286 717.000000 255 255 255
81.260000 -59.408571 717.000000 255 255 255
81.260000 -58.042857 717.000000 255 255 255
81.260000 -56.677143 717.000000 255 255 255
81.486667 -55.465714 719.000000 255 255 255
81.486667 -54.096190 719.000000 255 255 255
81.486667 -52.726667 719.000000 255 255 255
81.486667 -51.357143 719.000000 255 255 255
81.486667 -49.987619 719.000000 255 255 255
81.600000 -48.685714 720.000000 255 255 255
81.600000 -47.314286 720.000000 0 0 0
81.600000 -45.942857 720.000000 0 0 0
81.600000 -44.571429 720.000000 0 0 0
81.600000 -43.200000 720.000000 255 255 255
81.600000 -41.828571 720.000000 255 255 255
81.600000 -40.457143 720.000000 255 255 255
81.600000 -39.085714 720.000000 255 255 255
81.600000 -37.714286 720.000000 255 255 255
81.600000 -36.342857 720.000000 255 255 255
81.600000 -34.971429 720.000000 255 255 255
81.600000 -33.600000 720.000000 255 255 255
81.826667 -32.318095 722.000000 255 255 255
81.826667 -30.942857 722.000000 255 255 255
81.826667 -29.567619 722.000000 255 255 255
81.826667 -28.192381 722.000000 255 255 255
81.826667 -26.817143 722.000000 255 255 255
81.826667 -25.441905 722.000000 255 255 255
81.826667 -24.066667 722.000000 255 255 255
81.826667 -22.691429 722.000000 255 255 255
81.826667 -21.316190 722.000000 255 255 255
81.826667 -19.940952 722.000000 255 255 255
81.940000 -18.591429 723.000000 255 255 255
82.166667 -17.261905 725.000000 255 255 255
82.166667 -15.880952 725.000000 255 255 255
82.166667 -14.500000 725.000000 255 255 255
82.166667 -13.119048 725.000000 255 255 255
82.166667 -11.738095 725.000000 255 255 255
82.166667 -10.357143 725.000000 0 0 0
82.166667 -8.976190 725.000000 0 0 0
82.166667 -7.595238 725.000000 0 0 0
82.166667 -6.214286 725.000000 0 0 0
82.166667 -4.833333 725.000000 0 0 0
82.393333 -3.461905 727.000000 0 0 0
82.166667 -2.071429 725.000000 0 0 0
82.166667 -0.690476 725.000000 0 0 0
82.166667 0.690476 725.000000 255 255 255
82.166667 2.071429 725.000000 255 255 255
82.166667 3.452381 725.000000 255 255 255
82.166667 4.833333 725.000000 255 255 255
82.166667 6.214286 725.000000 255 255 255
82.166667 7.595238 725.000000 255 255 255
82.393333 9.000952 727.000000 255 255 255
82.393333 10.385714 727.000000 255 255 255
82.393333 11.770476 727.000000 255 255 255
82.393333 13.155238 727.000000 255 255 255
82.393333 14.540000 727.000000 255 255 255
82.506667 15.946667 728.000000 255 255 255
82.506667 17.333333 728.000000 255 255 255
82.506667 18.720000 728.000000 255 255 255
82.506667 20.106667 728.000000 255 255 255
82.506667 21.493333 728.000000 255 255 255
82.506667 22.880000 728.000000 255 255 255
82.733333 24.333333 730.000000 255 255 255
82.733333 25.723810 730.000000 255 255 255
82.506667 27.040000 728.000000 255 255 255
82.506667 28.426667 728.000000 255 255 255
82.733333 29.895238 730.000000 255 255 255
82.733333 31.285714 730.000000 255 255 255
82.846667 32.720952 731.000000 255 255 255
82.846667 34.113333 731.000000 255 255 255
82.846667 35.505714 731.000000 255 255 255
82.846667 36.898095 731.000000 255 255 255
82.846667 38.290476 731.000000 255 255 255
82.846667 39.682857 731.000000 255 255 255
82.846667 41.075238 731.000000 255 255 255
82.846667 42.467619 731.000000 255 255 255
83.073333 43.980000 733.000000 255 255 255
83.073333 45.376190 733.000000 255 255 255
83.073333 46.772381 733.000000 255 255 255
83.073333 48.168571 733.000000 255 255 255
83.073333 49.564762 733.000000 255 255 255
83.073333 50.960952 733.000000 255 255 255
83.073333 52.357143 733.000000 255 255 255
83.073333 53.753333 733.000000 255 255 255
83.073333 55.149524 733.000000 255 255 255
83.073333 56.545714 733.000000 255 255 255
83.073333 57.941905 733.000000 255 255 255
83.073333 59.338095 733.000000 255 255 255
83.073333 60.734286 733.000000 255 255 255
83.073333 62.130476 733.000000 255 255 255
83.186667 63.613333 734.000000 255 255 255
83.186667 65.011429 734.000000 255 255 255
83.186667 66.409524 734.000000 255 255 255
83.413333 67.992381 736.000000 255 255 255
83.413333 69.394286 736.000000 255 255 255
83.413333 70.796190 736.000000 255 255 255
83.413333 72.198095 736.000000 255 255 255
83.640000 73.800000 738.000000 255 255 255
83.640000 75.205714 738.000000 255 255 255
83.640000 76.611429 738.000000 255 255 255
83.640000 78.017143 738.000000 255 255 255
83.640000 79.422857 738.000000 255 255 255
83.640000 80.828571 738.000000 255 255 255
83.640000 82.234286 738.000000 255 255 255
83.640000 83.640000 738.000000 255 255 255
83.640000 85.045714 738.000000 255 255 255
83.640000 86.451429 738.000000 255 255 255
83.640000 87.857143 738.000000 255 255 255
83.640000 89.262857 738.000000 255 255 255
83.753333 90.791429 739.000000 255 255 255
83.753333 92.199048 739.000000 255 255 255
83.753333 93.606667 739.000000 255 255 255
83.753333 95.014286 739.000000 255 255 255
83.753333 96.421905 739.000000 255 255 255
83.980000 98.094286 741.000000 255 255 255
83.980000 99.505714 741.000000 255 255 255
83.980000 100.917143 741.000000 255 255 255
83.753333 102.052381 739.000000 255 255 255
83.753333 103.460000 739.000000 255 255 255
83.980000 105.151429 741.000000 255 255 255
83.980000 106.562857 741.000000 255 255 255
83.980000 107.974286 741.000000 255 255 255
84.093333 109.533333 742.000000 255 255 255
84.093333 110.946667 742.000000 255 255 255
84.093333 112.360000 742.000000 255 255 255
84.320000 114.080000 744.000000 255 255 255
84.320000 115.497143 744.000000 255 255 255
84.320000 116.914286 744.000000 255 255 255
84.320000 118.331429 744.000000 255 255 255
84.320000 119.748571 744.000000 0 0 0
84.320000 121.165714 744.000000 0 0 0
84.320000 122.582857 744.000000 0 0 0
84.320000 124.000000 744.000000 0 0 0
84.320000 125.417143 744.000000 0 0 0
84.320000 126.834286 744.000000 0 0 0
84.320000 128.251429 744.000000 0 0 0
84.320000 129.668571 744.000000 0 0 0
84.546667 131.438095 746.000000 0 0 0
84.546667 132.859048 746.000000 0 0 0
84.546667 134.280000 746.000000 0 0 0
84.546667 135.700952 746.000000 0 0 0
84.660000 137.305714 747.000000 0 0 0
84.660000 138.728571 747.000000 0 0 0
84.660000 140.151429 747.000000 0 0 0
84.660000 141.574286 747.000000 0 0 0
84.660000 142.997143 747.000000 0 0 0
84.660000 144.420000 747.000000 0 0 0
84.660000 145.842857 747.000000 0 0 0
84.886667 147.660000 749.000000 0 0 0
84.886667 149.086667 749.000000 0 0 0
84.886667 150.513333 749.000000 0 0 0
84.886667 151.940000 749.000000 0 0 0
84.886667 153.366667 749.000000 0 0 0
84.886667 154.793333 749.000000 0 0 0
84.886667 156.220000 749.000000 0 0 0
84.886667 157.646667 749.000000 0 0 0
84.886667 159.073333 749.000000 0 0 0
85.000000 160.714286 750.000000 0 0 0
85.000000 162.142857 750.000000 0 0 0
85.000000 163.571429 750.000000 0 0 0
85.000000 165.000000 750.000000 0 0 0
85.226667 166.872381 752.000000 0 0 0
85.226667 168.304762 752.000000 0 0 0
85.226667 169.737143 752.000000 0 0 0
85.226667 171.169524 752.000000 0 0 0
85.226667 172.601905 752.000000 0 0 0
85.226667 174.034286 752.000000 0 0 0
85.226667 175.466667 752.000000 0 0 0
85.226667 176.899048 752.000000 0 0 0
85.226667 178.331429 752.000000 0 0 0
85.226667 179.763810 752.000000 0 0 0
85.226667 181.196190 752.000000 0 0 0
85.226667 182.628571 752.000000 0 0 0
85.226667 184.060952 752.000000 0 0 0
85.226667 185.493333 752.000000 0 0 0
85.226667 186.925714 752.000000 0 0 0
85.453333 188.859048 754.000000 0 0 0
85.453333 190.295238 754.000000 0 0 0
85.453333 191.731429 754.000000 0 0 0
85.453333 193.167619 754.000000 0 0 0
85.453333 194.603810 754.000000 0 0 0
85.453333 196.040000 754.000000 0 0 0
85.566667 197.738095 755.000000 0 0 0
85.566667 199.176190 755.000000 0 0 0
85.566667 200.614286 755.000000 0 0 0
85.793333 202.587619 757.000000 0 0 0
85.793333 204.029524 757.000000 0 0 0
85.793333 205.471429 757.000000 0 0 0
85.793333 206.913333 757.000000 0 0 0
85.793333 208.355238 757.000000 0 0 0
85.793333 209.797143 757.000000 0 0 0
85.793333 211.239048 757.000000 0 0 0
85.793333 212.680952 757.000000 0 0 0
85.793333 214.122857 757.000000 0 0 0
85.793333 215.564762 757.000000 0 0 0
86.020000 217.580000 759.000000 0 0 0
86.020000 219.025714 759.000000 0 0 0
86.020000 220.471429 759.000000 0 0 0
86.020000 221.917143 759.000000 0 0 0
86.020000 223.362857 759.000000 0 0 0
86.020000 224.808571 759.000000 0 0 0
86.020000 226.254286 759.000000 0 0 0
86.020000 227.700000 759.000000 0 0 0
86.020000 229.145714 759.000000 0 0 0
86.020000 230.591429 759.000000 0 0 0
86.020000 232.037143 759.000000 0 0 0
86.020000 233.482857 759.000000 0 0 0
86.246667 235.547619 761.000000 0 0 0
86.246667 236.997143 761.000000 0 0 0
86.360000 238.760000 762.000000 0 0 0
86.360000 240.211429 762.000000 0 0 0
86.586667 242.297143 764.000000 0 0 0
86.586667 243.752381 764.000000 0 0 0
86.813333 245.849524 766.000000 0 0 0
86.813333 247.308571 766.000000 0 0 0
86.926667 249.092381 767.000000 0 0 0
86.926667 250.553333 767.000000 0 0 0
86.926667 252.014286 767.000000 0 0 0
86.926667 253.475238 767.000000 255 255 255
86.813333 254.603810 766.000000 0 0 0
86.586667 255.394286 764.000000 255 255 255
86.246667 255.840952 761.000000 0 0 0
85.453333 254.923810 754.000000 255 255 255
85.226667 255.680000 752.000000 0 0 0
84.886667 256.086667 749.000000 0 0 0
84.546667 256.481905 746.000000 255 255 255
84.320000 257.211429 744.000000 0 0 0
84.093333 257.933333 742.000000 0 0 0
84.093333 259.346667 742.000000 0 0 0
83.073333 257.597143 733.000000 255 255 255
82.846667 258.286667 731.000000 255 255 255
82.506667 258.613333 728.000000 255 255 255
82.506667 260.000000 728.000000 255 255 255
82.393333 261.027619 727.000000 255 255 255
82.166667 261.690476 725.000000 255 255 255
81.940000 262.345714 723.000000 255 255 255
81.260000 261.534286 717.000000 255 255 255
80.920000 261.800000 714.000000 255 255 255
80.580000 262.054286 711.000000 255 255 255
80.240000 262.297143 708.000000 255 255 255
80.013333 262.900952 706.000000 255 255 255
79.786667 263.497143 704.000000 255 255 255
79.673333 264.461905 703.000000 255 255 255
79.446667 265.044762 701.000000 255 255 255
79.333333 266.000000 700.000000 0 0 0
79.333333 267.333333 700.000000 0 0 0
82.164762 -132.414286 713.000000 255 255 255
82.164762 -131.056190 713.000000 255 255 255
81.819048 -129.152381 710.000000 255 255 255
81.819048 -127.800000 710.000000 255 255 255
81.819048 -126.447619 710.000000 255 255 255
81.819048 -125.095238 710.000000 255 255 255
81.819048 -123.742857 710.000000 255 255 255
81.819048 -122.390476 710.000000 255 255 255
81.819048 -121.038095 710.000000 255 255 255
81.819048 -119.685714 710.000000 255 255 255
81.819048 -118.333333 710.000000 255 255 255
81.934286 -117.145714 711.000000 0 0 0
82.164762 -116.117143 713.000000 0 0 0
81.934286 -114.437143 711.000000 0 0 0
81.934286 -113.082857 711.000000 0 0 0
81.934286 -111.728571 711.000000 0 0 0
81.934286 -110.374286 711.000000 0 0 0
82.164762 -109.326667 713.000000 0 0 0
82.164762 -107.968571 713.000000 0 0 0
82.164762 -106.610476 713.000000 0 0 0
82.164762 -105.252381 713.000000 0 0 0
82.164762 -103.894286 713.000000 0 0 0
82.164762 -102.536190 713.000000 0 0 0
82.164762 -101.178095 713.000000 0 0 0
81.934286 -99.540000 711.000000 0 0 0
81.934286 -98.185714 711.000000 0 0 0
82.164762 -97.103810 713.000000 0 0 0
82.164762 -95.745714 713.000000 0 0 0
82.164762 -94.387619 713.000000 0 0 0
82.280000 -93.160000 714.000000 0 0 0
82.280000 -91.800000 714.000000 0 0 0
82.510476 -90.693333 716.000000 0 0 0
82.510476 -89.329524 716.000000 0 0 0
82.510476 -87.965714 716.000000 0 0 0
82.510476 -86.601905 716.000000 0 0 0
82.510476 -85.238095 716.000000 0 0 0
82.510476 -83.874286 716.000000 0 0 0
82.510476 -82.510476 716.000000 0 0 0
82.510476 -81.146667 716.000000 0 0 0
82.510476 -79.782857 716.000000 0 0 0
82.510476 -78.419048 716.000000 255 255 255
82.510476 -77.055238 716.000000 255 255 255
82.510476 -75.691429 716.000000 255 255 255
82.510476 -74.327619 716.000000 255 255 255
82.510476 -72.963810 716.000000 255 255 255
82.510476 -71.600000 716.000000 255 255 255
82.510476 -70.236190 716.000000 255 255 255
82.510476 -68.872381 716.000000 0 0 0
82.510476 -67.508571 716.000000 0 0 0
82.510476 -66.144762 716.000000 0 0 0
82.510476 -64.780952 716.000000 255 255 255
82.510476 -63.417143 716.000000 255 255 255
82.625714 -62.140000 717.000000 255 255 255
82.625714 -60.774286 717.000000 255 255 255
82.625714 -59.408571 717.000000 255 255 255
82.625714 -58.042857 717.000000 255 255 255
82.625714 -56.677143 717.000000 255 255 255
82.856190 -55.465714 719.000000 255 255 255
82.856190 -54.096190 719.000000 255 255 255
82.856190 -52.726667 719.000000 255 255 255
82.856190 -51.357143 719.000000 255 255 255
82.856190 -49.987619 719.000000 255 255 255
82.971429 -48.685714 720.000000 255 255 255
82.971429 -47.314286 720.000000 0 0 0
82.971429 -45.942857 720.000000 0 0 0
82.971429 -44.571429 720.000000 0 0 0
82.971429 -43.200000 720.000000 255 255 255
82.971429 -41.828571 720.000000 255 255 255
82.971429 -40.457143 720.000000 255 255 255
82.971429 -39.085714 720.000000 255 255 255
82.971429 -37.714286 720.000000 255 255 255
82.971429 -36.342857 720.000000 255 255 255
82.971429 -34.971429 720.000000 255 255 255
82.971429 -33.600000 720.000000 255 255 255
83.201905 -32.318095 722.000000 255 255 255
83.201905 -30.942857 722.000000 255 255 255
83.201905 -29.567619 722.000000 255 255 255
83.201905 -28.192381 722.000000 255 255 255
83.201905 -26.817143 722.000000 255 255 255
83.201905 -25.441905 722.000000 255 255 255
83.201905 -24.066667 722.000000 255 255 255
83.201905 -22.691429 722.000000 255 255 255
83.201905 -21.316190 722.000000 255 255 255
83.201905 -19.940952 722.000000 255 255 255
83.317143 -18.591429 723.000000 255 255 255
83.547619 -17.261905 725.000000 255 255 255
83.547619 -15.880952 725.000000 255 255 255
83.547619 -14.500000 725.000000 255 255 255
83.547619 -13.119048 725.000000 255 255 255
83.547619 -11.738095 725.000000 255 255 255
83.547619 -10.357143 725.000000 255 255 255
83.547619 -8.976190 725.000000 255 255 255
83.547619 -7.595238 725.000000 0 0 0
83.547619 -6.214286 725.000000 0 0 0
83.547619 -4.833333 725.000000 0 0 0
83.778095 -3.461905 727.000000 0 0 0
83.778095 -2.077143 727.000000 255 255 255
83.778095 -0.692381 727.000000 255 255 255
83.778095 0.692381 727.000000 255 255 255
83.778095 2.077143 727.000000 255 255 255
83.778095 3.461905 727.000000 255 255 255
83.778095 4.846667 727.000000 255 255 255
83.778095 6.231429 727.000000 255 255 255
83.778095 7.616190 727.000000 255 255 255
83.778095 9.000952 727.000000 255 255 255
83.778095 10.385714 727.000000 255 255 255
83.778095 11.770476 727.000000 255 255 255
83.778095 13.155238 727.000000 255 255 255
83.778095 14.540000 727.000000 255 255 255
83.893333 15.946667 728.000000 255 255 255
83.893333 17.333333 728.000000 255 255 255
83.893333 18.720000 728.000000 255 255 255
83.893333 20.106667 728.000000 255 255 255
83.893333 21.493333 728.000000 255 255 255
83.893333 22.880000 728.000000 255 255 255
84.123810 24.333333 730.000000 255 255 255
84.123810 25.723810 730.000000 255 255 255
84.123810 27.114286 730.000000 255 255 255
84.123810 28.504762 730.000000 255 255 255
84.123810 29.895238 730.000000 255 255 255
84.239048 31.328571 731.000000 255 255 255
84.239048 32.720952 731.000000 255 255 255
84.239048 34.113333 731.000000 255 255 255
84.239048 35.505714 731.000000 255 255 255
84.239048 36.898095 731.000000 255 255 255
84.239048 38.290476 731.000000 255 255 255
84.239048 39.682857 731.000000 255 255 255
84.239048 41.075238 731.000000 255 255 255
84.239048 42.467619 731.000000 255 255 255
84.239048 43.860000 731.000000 255 255 255
84.469524 45.376190 733.000000 255 255 255
84.469524 46.772381 733.000000 255 255 255
84.469524 48.168571 733.000000 255 255 255
84.469524 49.564762 733.000000 255 255 255
84.469524 50.960952 733.000000 255 255 255
84.469524 52.357143 733.000000 255 255 255
84.469524 53.753333 733.000000 255 255 255
84.469524 55.149524 733.000000 255 255 255
84.469524 56.545714 733.000000 255 255 255
84.469524 57.941905 733.000000 255 255 255
84.469524 59.338095 733.000000 255 255 255
84.469524 60.734286 733.000000 255 255 255
84.584762 62.215238 734.000000 255 255 255
84.584762 63.613333 734.000000 255 255 255
84.584762 65.011429 734.000000 255 255 255
84.584762 66.409524 734.000000 255 255 255
84.815238 67.992381 736.000000 255 255 255
84.815238 69.394286 736.000000 255 255 255
84.815238 70.796190 736.000000 255 255 255
85.045714 72.394286 738.000000 255 255 255
85.045714 73.800000 738.000000 255 255 255
85.045714 75.205714 738.000000 255 255 255
85.045714 76.611429 738.000000 255 255 255
85.045714 78.017143 738.000000 255 255 255
85.045714 79.422857 738.000000 255 255 255
85.045714 80.828571 738.000000 255 255 255
